0.0431,0.0431,0.0431,0.0431,0.0431,0.0431,0.0431,0.0431,0.0431,0.0431,0.0431,0.0431,0.0431,0.0431,0.0431,0.0431,0.0431,0.0431,0.0431,0.0431,0.0431,0.0431,0.0431,0.0431,0.0431,0.0431,0.0431,0.0431,0.0431,0.0431,0.0431,0.0431,0.0431,0.0431,0.0431,0.0431,0.0431,0.0431,0.0431,0.0431,0.0431,0.0431,0.0431,0.0431,0.0431,0.0431,0.0431,0.0431,0.0431,0.0431,0.0431,0.0431,0.0431,0.0431,0.0431,0.0431,0.0431,0.0431,0.0431,0.0431,0.0431,0.0431,0.0431,0.0431,0.0431,-0.1047,-0.1054,-0.1056,-0.1071,-0.1096,-0.1154,-0.1205,-0.1233,-0.1266,-0.1331,-0.1368,-0.1444,-0.1528,-0.1596,-0.1644,-0.1649,-0.1647,-0.1626,-0.1588,-0.1513,-0.1359,-0.1183,0.0431,0.0431,0.0431,0.0431,0.0431,0.0431,0.0431,0.0431,0.0431,0.0431,0.0431,0.0431,0.0431,0.0431,0.0431,0.0431,0.0431,0.0431,0.0431,0.0431,0.0431,0.0431,0.0431,0.0431,0.0431,0.0431,0.0431,0.0431,0.0431,0.0431,0.0431,0.0431,0.0431,0.0431,0.0431,0.0431,0.0431,0.0431,0.0431,0.0431,0.0431,0.0431,0.0431,0.0431,0.0431,0.0431,0.0431,0.0431,0.0431,0.0431,0.0431,0.0431,0.0431,0.0431,0.0431,0.0431,0.0431,0.0431,0.0431,0.0431,0.0431,0.0431,0.0431,0.0431,0.0431,0.0431,0.0431,0.0431,0.0431,0.0431,0.0431,0.0431,0.0431
0.0442,0.0442,0.0442,0.0442,0.0442,0.0442,0.0442,0.0442,0.0442,0.0442,0.0442,0.0442,0.0442,0.0442,0.0442,0.0442,0.0442,0.0442,0.0442,0.0442,0.0442,0.0442,0.0442,0.0442,0.0442,0.0442,0.0442,0.0442,0.0442,0.0442,0.0442,0.0442,0.0442,0.0442,0.0442,0.0442,0.0442,0.0442,0.0442,0.0442,0.0442,0.0442,0.0442,0.0442,0.0442,0.0442,0.0442,0.0442,0.0442,0.0442,0.0442,0.0442,0.0442,0.0442,0.0442,0.0442,0.0442,0.0442,0.0442,0.0442,0.0442,0.0442,0.0442,0.0442,0.0442,-0.1061,-0.1066,-0.1077,-0.1098,-0.1131,-0.1177,-0.1225,-0.1257,-0.1301,-0.1343,-0.1389,-0.1493,-0.1601,-0.1675,-0.1701,-0.1746,-0.1782,-0.1774,-0.1707,-0.1623,-0.1444,-0.1184,0.0442,0.0442,0.0442,0.0442,0.0442,0.0442,0.0442,0.0442,0.0442,0.0442,0.0442,0.0442,0.0442,0.0442,0.0442,0.0442,0.0442,0.0442,0.0442,0.0442,0.0442,0.0442,0.0442,0.0442,0.0442,0.0442,0.0442,0.0442,0.0442,0.0442,0.0442,0.0442,0.0442,0.0442,0.0442,0.0442,0.0442,0.0442,0.0442,0.0442,0.0442,0.0442,0.0442,0.0442,0.0442,0.0442,0.0442,0.0442,0.0442,0.0442,0.0442,0.0442,0.0442,0.0442,0.0442,0.0442,0.0442,0.0442,0.0442,0.0442,0.0442,0.0442,0.0442,0.0442,0.0442,0.0442,0.0442,0.0442,0.0442,0.0442,0.0442,0.0442,0.0442
0.0454,0.0454,0.0454,0.0454,0.0454,0.0454,0.0454,0.0454,0.0454,0.0454,0.0454,0.0454,0.0454,0.0454,0.0454,0.0454,0.0454,0.0454,0.0454,0.0454,0.0454,0.0454,0.0454,0.0454,0.0454,0.0454,0.0454,0.0454,0.0454,0.0454,0.0454,0.0454,0.0454,0.0454,0.0454,0.0454,0.0454,0.0454,0.0454,0.0454,0.0454,0.0454,0.0454,0.0454,0.0454,0.0454,0.0454,0.0454,0.0454,0.0454,0.0454,0.0454,0.0454,0.0454,0.0454,0.0454,0.0454,0.0454,0.0454,0.0454,0.0454,0.0454,0.0454,0.0454,0.0454,-0.0113,-0.1063,-0.1078,-0.1098,-0.1126,-0.1177,-0.1224,-0.1262,-0.1311,-0.1341,-0.1390,-0.1541,-0.1680,-0.1741,-0.1821,-0.1877,-0.1899,-0.1886,-0.1846,-0.1737,-0.1606,-0.0360,0.0454,0.0454,0.0454,0.0454,0.0454,0.0454,0.0454,0.0454,0.0454,0.0454,0.0454,0.0454,0.0454,0.0454,0.0454,0.0454,0.0454,0.0454,0.0454,0.0454,0.0454,0.0454,0.0454,0.0454,0.0454,0.0454,0.0454,0.0454,0.0454,0.0454,0.0454,0.0454,0.0454,0.0454,0.0454,0.0454,0.0454,0.0454,0.0454,0.0454,0.0454,0.0454,0.0454,0.0454,0.0454,0.0454,0.0454,0.0454,0.0454,0.0454,0.0454,0.0454,0.0454,0.0454,0.0454,0.0454,0.0454,0.0454,0.0454,0.0454,0.0454,0.0454,0.0454,0.0454,0.0454,0.0454,0.0454,0.0454,0.0454,0.0454,0.0454,0.0454,0.0454
0.0466,0.0466,0.0466,0.0466,0.0466,0.0466,0.0466,0.0466,0.0466,0.0466,0.0466,0.0466,0.0466,0.0466,0.0466,0.0466,0.0466,0.0466,0.0466,0.0466,0.0466,0.0466,0.0466,0.0466,0.0466,0.0466,0.0466,0.0466,0.0466,0.0466,0.0466,0.0466,0.0466,0.0466,0.0466,0.0466,0.0466,0.0466,0.0466,0.0466,0.0466,0.0466,0.0466,0.0466,0.0466,0.0466,0.0466,0.0466,0.0466,0.0466,0.0466,0.0466,0.0466,0.0466,0.0466,0.0466,0.0466,0.0466,0.0466,0.0466,0.0466,0.0466,0.0466,0.0466,0.0466,0.0466,-0.0229,-0.1058,-0.1073,-0.1102,-0.1150,-0.1201,-0.1253,-0.1300,-0.1333,-0.1431,-0.1637,-0.1743,-0.1848,-0.1919,-0.1962,-0.1981,-0.1976,-0.1935,-0.1859,-0.1729,0.0466,0.0466,0.0466,0.0466,0.0466,0.0466,0.0466,0.0466,0.0466,0.0466,0.0466,0.0466,0.0466,0.0466,0.0466,0.0466,0.0466,0.0466,0.0466,0.0466,0.0466,0.0466,0.0466,0.0466,0.0466,0.0466,0.0466,0.0466,0.0466,0.0466,0.0466,0.0466,0.0466,0.0466,0.0466,0.0466,0.0466,0.0466,0.0466,0.0466,0.0466,0.0466,0.0466,0.0466,0.0466,0.0466,0.0466,0.0466,0.0466,0.0466,0.0466,0.0466,0.0466,0.0466,0.0466,0.0466,0.0466,0.0466,0.0466,0.0466,0.0466,0.0466,0.0466,0.0466,0.0466,0.0466,0.0466,0.0466,0.0466,0.0466,0.0466,0.0466,0.0466,0.0466
0.0478,0.0478,0.0478,0.0478,0.0478,0.0478,0.0478,0.0478,0.0478,0.0478,0.0478,0.0478,0.0478,0.0478,0.0478,0.0478,0.0478,0.0478,0.0478,0.0478,0.0478,0.0478,0.0478,0.0478,0.0478,0.0478,0.0478,0.0478,0.0478,0.0478,0.0478,0.0478,0.0478,0.0478,0.0478,0.0478,0.0478,0.0478,0.0478,0.0478,0.0478,0.0478,0.0478,0.0478,0.0478,0.0478,0.0478,0.0478,0.0478,0.0478,0.0478,0.0478,0.0478,0.0478,0.0478,0.0478,0.0478,0.0478,0.0478,0.0478,0.0478,0.0478,0.0478,0.0478,0.0478,0.0478,0.0478,0.0478,0.0478,0.0478,0.0478,0.0341,-0.1231,-0.1281,-0.1321,-0.1430,-0.1718,-0.1841,-0.1933,-0.1999,-0.2028,-0.2038,-0.2035,-0.2017,-0.1965,-0.1853,-0.1682,0.0478,0.0478,0.0478,0.0478,0.0478,0.0478,0.0478,0.0478,0.0478,0.0478,0.0478,0.0478,0.0478,0.0478,0.0478,0.0478,0.0478,0.0478,0.0478,0.0478,0.0478,0.0478,0.0478,0.0478,0.0478,0.0478,0.0478,0.0478,0.0478,0.0478,0.0478,0.0478,0.0478,0.0478,0.0478,0.0478,0.0478,0.0478,0.0478,0.0478,0.0478,0.0478,0.0478,0.0478,0.0478,0.0478,0.0478,0.0478,0.0478,0.0478,0.0478,0.0478,0.0478,0.0478,0.0478,0.0478,0.0478,0.0478,0.0478,0.0478,0.0478,0.0478,0.0478,0.0478,0.0478,0.0478,0.0478,0.0478,0.0478,0.0478,0.0478,0.0478,0.0478
0.0489,0.0489,0.0489,0.0489,0.0489,0.0489,0.0489,0.0489,0.0489,0.0489,0.0489,0.0489,0.0489,0.0489,0.0489,0.0489,0.0489,0.0489,0.0489,0.0489,0.0489,0.0489,0.0489,0.0489,0.0489,0.0489,0.0489,0.0489,0.0489,0.0489,0.0489,0.0489,0.0489,0.0489,0.0489,0.0489,0.0489,0.0489,0.0489,0.0489,0.0489,0.0489,0.0489,0.0489,0.0489,0.0489,0.0489,0.0489,0.0489,0.0489,0.0489,0.0489,0.0489,0.0489,0.0489,0.0489,0.0489,0.0489,0.0489,0.0489,0.0489,0.0489,0.0489,0.0489,0.0489,0.0489,0.0489,0.0489,0.0489,0.0489,0.0489,0.0489,0.0279,-0.1257,-0.1309,-0.1488,-0.1777,-0.1919,-0.2017,-0.2055,-0.2075,-0.2082,-0.2082,-0.2072,-0.2048,-0.1977,-0.1848,0.0489,0.0489,0.0489,0.0489,0.0489,0.0489,0.0489,0.0489,0.0489,0.0489,0.0489,0.0489,0.0489,0.0489,0.0489,0.0489,0.0489,0.0489,0.0489,0.0489,0.0489,0.0489,0.0489,0.0489,0.0489,0.0489,0.0489,0.0489,0.0489,0.0489,0.0489,0.0489,0.0489,0.0489,0.0489,0.0489,0.0489,0.0489,0.0489,0.0489,0.0489,0.0489,0.0489,0.0489,0.0489,0.0489,0.0489,0.0489,0.0489,0.0489,0.0489,0.0489,0.0489,0.0489,0.0489,0.0489,0.0489,0.0489,0.0489,0.0489,0.0489,0.0489,0.0489,0.0489,0.0489,0.0489,0.0489,0.0489,0.0489,0.0489,0.0489,0.0489,0.0489
0.0501,0.0501,0.0501,0.0501,0.0501,0.0501,0.0501,0.0501,0.0501,0.0501,0.0501,0.0501,0.0501,0.0501,0.0501,0.0501,0.0501,0.0501,0.0501,0.0501,0.0501,0.0501,0.0501,0.0501,0.0501,0.0501,0.0501,0.0501,0.0501,0.0501,0.0501,0.0501,0.0501,0.0501,0.0501,0.0501,0.0501,0.0501,0.0501,0.0501,0.0501,0.0501,0.0501,0.0501,0.0501,0.0501,0.0501,0.0501,0.0501,0.0501,0.0501,0.0501,0.0501,0.0501,0.0501,0.0501,0.0501,0.0501,0.0501,0.0501,0.0501,0.0501,0.0501,0.0501,0.0501,0.0501,0.0501,0.0501,0.0501,0.0501,0.0501,0.0501,0.0501,0.0501,-0.1260,-0.1712,-0.1862,-0.2018,-0.2072,-0.2097,-0.2112,-0.2119,-0.2120,-0.2116,-0.2103,-0.2075,-0.1993,-0.1861,0.0501,0.0501,0.0501,0.0501,0.0501,0.0501,0.0501,0.0501,0.0501,0.0501,0.0501,0.0501,0.0501,0.0501,0.0501,0.0501,0.0501,0.0501,0.0501,0.0501,0.0501,0.0501,0.0501,0.0501,0.0501,0.0501,0.0501,0.0501,0.0501,0.0501,0.0501,0.0501,0.0501,0.0501,0.0501,0.0501,0.0501,0.0501,0.0501,0.0501,0.0501,0.0501,0.0501,0.0501,0.0501,0.0501,0.0501,0.0501,0.0501,0.0501,0.0501,0.0501,0.0501,0.0501,0.0501,0.0501,0.0501,0.0501,0.0501,0.0501,0.0501,0.0501,0.0501,0.0501,0.0501,0.0501,0.0501,0.0501,0.0501,0.0501,0.0501,0.0501
0.0513,0.0513,0.0513,0.0513,0.0513,0.0513,0.0513,0.0513,0.0513,0.0513,0.0513,0.0513,0.0513,0.0513,0.0513,0.0513,0.0513,0.0513,0.0513,0.0513,0.0513,0.0513,0.0513,0.0513,0.0513,0.0513,0.0513,0.0513,0.0513,0.0513,0.0513,0.0513,0.0513,0.0513,0.0513,0.0513,0.0513,0.0513,0.0513,0.0513,0.0513,0.0513,0.0513,0.0513,0.0513,0.0513,0.0513,0.0513,0.0513,0.0513,0.0513,0.0513,0.0513,0.0513,0.0513,0.0513,0.0513,0.0513,0.0513,0.0513,0.0513,0.0513,0.0513,0.0513,0.0513,0.0513,0.0513,0.0513,0.0513,0.0513,0.0513,0.0513,0.0513,0.0513,0.0513,-0.1772,-0.1969,-0.2078,-0.2111,-0.2132,-0.2144,-0.2150,-0.2153,-0.2152,-0.2145,-0.2131,-0.2102,-0.2005,0.0003,0.0513,0.0513,0.0513,0.0513,0.0513,0.0513,0.0513,0.0513,0.0513,0.0513,0.0513,0.0513,0.0513,0.0513,0.0513,0.0513,0.0513,0.0513,0.0513,0.0513,0.0513,0.0513,0.0513,0.0513,0.0513,0.0513,0.0513,0.0513,0.0513,0.0513,0.0513,0.0513,0.0513,0.0513,0.0513,0.0513,0.0513,0.0513,0.0513,0.0513,0.0513,0.0513,0.0513,0.0513,0.0513,0.0513,0.0513,0.0513,0.0513,0.0513,0.0513,0.0513,0.0513,0.0513,0.0513,0.0513,0.0513,0.0513,0.0513,0.0513,0.0513,0.0513,0.0513,0.0513,0.0513,0.0513,0.0513,0.0513,0.0513,0.0513,0.0513
0.0525,0.0525,0.0525,0.0525,0.0525,0.0525,0.0525,0.0525,0.0525,0.0525,0.0525,0.0525,0.0525,0.0525,0.0525,0.0525,0.0525,0.0525,0.0525,0.0525,0.0525,0.0525,0.0525,0.0525,0.0525,0.0525,0.0525,0.0525,0.0525,0.0525,0.0525,0.0525,0.0525,0.0525,0.0525,0.0525,0.0525,0.0525,0.0525,0.0525,0.0525,0.0525,0.0525,0.0525,0.0525,0.0525,0.0525,0.0525,0.0525,0.0525,0.0525,0.0525,0.0525,0.0525,0.0525,0.0525,0.0525,0.0525,0.0525,0.0525,0.0525,0.0525,0.0525,0.0525,0.0525,0.0525,0.0525,0.0525,0.0525,0.0525,0.0525,0.0525,0.0525,0.0525,0.0525,-0.1836,-0.2068,-0.2117,-0.2144,-0.2161,-0.2173,-0.2180,-0.2185,-0.2186,-0.2181,-0.2171,-0.2154,-0.2119,-0.2009,0.0525,0.0525,0.0525,0.0525,0.0525,0.0525,0.0525,0.0525,0.0525,0.0525,0.0525,0.0525,0.0525,0.0525,0.0525,0.0525,0.0525,0.0525,0.0525,0.0525,0.0525,0.0525,0.0525,0.0525,0.0525,0.0525,0.0525,0.0525,0.0525,0.0525,0.0525,0.0525,0.0525,0.0525,0.0525,0.0525,0.0525,0.0525,0.0525,0.0525,0.0525,0.0525,0.0525,0.0525,0.0525,0.0525,0.0525,0.0525,0.0525,0.0525,0.0525,0.0525,0.0525,0.0525,0.0525,0.0525,0.0525,0.0525,0.0525,0.0525,0.0525,0.0525,0.0525,0.0525,0.0525,0.0525,0.0525,0.0525,0.0525,0.0525,0.0525
0.0537,0.0537,0.0537,0.0537,0.0537,0.0537,0.0537,0.0537,0.0537,0.0537,0.0537,0.0537,0.0537,0.0537,0.0537,0.0537,0.0537,0.0537,0.0537,0.0537,0.0537,0.0537,0.0537,0.0537,0.0537,0.0537,0.0537,0.0537,0.0537,0.0537,0.0537,0.0537,0.0537,0.0537,0.0537,0.0537,0.0537,0.0537,0.0537,0.0537,0.0537,0.0537,0.0537,0.0537,0.0537,0.0537,0.0537,0.0537,0.0537,0.0537,0.0537,0.0537,0.0537,0.0537,0.0537,0.0537,0.0537,0.0537,0.0537,0.0537,0.0537,0.0537,0.0537,0.0537,0.0537,0.0537,0.0537,0.0537,0.0537,0.0537,0.0537,0.0537,0.0537,0.0537,0.0537,-0.1955,-0.2114,-0.2150,-0.2174,-0.2190,-0.2201,-0.2207,-0.2212,-0.2213,-0.2211,-0.2206,-0.2195,-0.2173,-0.2117,-0.2022,0.0537,0.0537,0.0537,0.0537,0.0537,0.0537,0.0537,0.0537,0.0537,0.0537,0.0537,0.0537,0.0537,0.0537,0.0537,0.0537,0.0537,0.0537,0.0537,0.0537,0.0537,0.0537,0.0537,0.0537,0.0537,0.0537,0.0537,0.0537,0.0537,0.0537,0.0537,0.0537,0.0537,0.0537,0.0537,0.0537,0.0537,0.0537,0.0537,0.0537,0.0537,0.0537,0.0537,0.0537,0.0537,0.0537,0.0537,0.0537,0.0537,0.0537,0.0537,0.0537,0.0537,0.0537,0.0538,0.0537,0.0538,0.0538,0.0538,0.0538,0.0538,0.0538,0.0538,0.0538,0.0538,0.0538,0.0538,0.0538,0.0538,0.0538
0.0550,0.0550,0.0550,0.0550,0.0550,0.0550,0.0550,0.0550,0.0550,0.0550,0.0550,0.0550,0.0550,0.0550,0.0550,0.0550,0.0550,0.0550,0.0550,0.0550,0.0550,0.0550,0.0550,0.0550,0.0550,0.0550,0.0550,0.0550,0.0550,0.0550,0.0550,0.0550,0.0550,0.0550,0.0550,0.0550,0.0550,0.0550,0.0550,0.0550,0.0550,0.0550,0.0550,0.0550,0.0550,0.0550,0.0550,0.0550,0.0550,0.0550,0.0550,0.0550,0.0550,0.0550,0.0550,0.0550,0.0550,0.0550,0.0550,0.0550,0.0550,0.0550,0.0550,0.0550,0.0550,0.0550,0.0550,0.0550,0.0550,0.0550,0.0550,0.0550,0.0550,0.0550,0.0550,-0.2091,-0.2148,-0.2180,-0.2201,-0.2216,-0.2226,-0.2232,-0.2236,-0.2237,-0.2237,-0.2234,-0.2228,-0.2215,-0.2176,-0.2106,-0.1927,0.0550,0.0550,0.0550,0.0550,0.0550,0.0550,0.0550,0.0550,0.0550,0.0550,0.0550,0.0550,0.0550,0.0550,0.0550,0.0550,0.0550,0.0550,0.0550,0.0550,0.0550,0.0550,0.0550,0.0550,0.0550,0.0550,0.0550,0.0550,0.0550,0.0550,0.0550,0.0550,0.0550,0.0550,0.0550,0.0550,0.0550,0.0550,0.0550,0.0550,0.0550,0.0550,0.0550,0.0550,0.0550,0.0550,0.0550,0.0550,0.0550,0.0550,0.0550,0.0550,0.0550,0.0550,0.0550,0.0550,0.0550,0.0550,0.0550,0.0550,0.0550,0.0550,0.0550,0.0550,0.0550,0.0550,0.0550,0.0550,0.0550
0.0562,0.0562,0.0562,0.0562,0.0562,0.0562,0.0562,0.0562,0.0562,0.0562,0.0562,0.0562,0.0562,0.0562,0.0562,0.0562,0.0562,0.0562,0.0562,0.0562,0.0562,0.0562,0.0562,0.0562,0.0562,0.0562,0.0562,0.0562,0.0562,0.0562,0.0562,0.0562,0.0562,0.0562,0.0562,0.0562,0.0562,0.0562,0.0562,0.0562,0.0562,0.0562,0.0562,0.0562,0.0562,0.0562,0.0562,0.0562,0.0562,0.0562,0.0562,0.0562,0.0562,0.0562,0.0562,0.0562,0.0562,0.0562,0.0562,0.0562,0.0562,0.0562,0.0562,0.0562,0.0562,0.0562,0.0562,0.0562,0.0562,0.0562,0.0562,0.0562,0.0562,0.0562,0.0562,-0.2138,-0.2179,-0.2206,-0.2226,-0.2240,-0.2249,-0.2255,-0.2259,-0.2262,-0.2262,-0.2261,-0.2256,-0.2247,-0.2224,-0.2165,-0.2108,-0.0419,0.0562,0.0562,0.0562,0.0562,0.0562,0.0562,0.0562,0.0562,0.0562,0.0562,0.0562,0.0562,0.0562,0.0562,0.0562,0.0562,0.0562,0.0562,0.0562,0.0562,0.0562,0.0562,0.0562,0.0562,0.0562,0.0562,0.0562,0.0562,0.0562,0.0562,0.0562,0.0562,0.0562,0.0562,0.0562,0.0562,0.0562,0.0562,0.0562,0.0562,0.0562,0.0562,0.0562,0.0562,0.0562,0.0562,0.0562,0.0562,0.0562,0.0562,0.0562,0.0562,0.0562,0.0562,0.0562,0.0562,0.0562,0.0562,0.0562,0.0562,0.0562,0.0562,0.0562,0.0562,0.0562,0.0562,0.0562,0.0562
0.0574,0.0574,0.0574,0.0574,0.0574,0.0574,0.0574,0.0574,0.0574,0.0574,0.0574,0.0574,0.0574,0.0574,0.0574,0.0574,0.0574,0.0574,0.0574,0.0574,0.0574,0.0574,0.0574,0.0574,0.0574,0.0574,0.0574,0.0574,0.0574,0.0574,0.0574,0.0574,0.0574,0.0574,0.0574,0.0574,0.0574,0.0574,0.0574,0.0574,0.0574,0.0574,0.0574,0.0574,0.0574,0.0574,0.0574,0.0574,0.0574,0.0574,0.0574,0.0574,0.0574,0.0574,0.0574,0.0574,0.0574,0.0574,0.0574,0.0574,0.0574,0.0574,0.0574,0.0574,0.0574,0.0574,0.0574,0.0574,0.0574,0.0574,0.0574,0.0574,0.0574,0.0574,-0.2041,-0.2170,-0.2204,-0.2231,-0.2250,-0.2263,-0.2260,-0.2258,-0.2262,-0.2265,-0.2265,-0.2264,-0.2259,-0.2256,-0.2260,-0.2211,-0.2164,-0.2112,0.0574,0.0574,0.0574,0.0574,0.0574,0.0574,0.0574,0.0574,0.0574,0.0574,0.0574,0.0574,0.0574,0.0574,0.0574,0.0574,0.0574,0.0574,0.0574,0.0574,0.0574,0.0574,0.0574,0.0574,0.0574,0.0574,0.0574,0.0574,0.0574,0.0574,0.0574,0.0574,0.0574,0.0574,0.0574,0.0574,0.0574,0.0574,0.0574,0.0574,0.0574,0.0574,0.0574,0.0574,0.0574,0.0574,0.0574,0.0574,0.0574,0.0574,0.0574,0.0574,0.0574,0.0574,0.0574,0.0574,0.0574,0.0574,0.0574,0.0574,0.0574,0.0574,0.0574,0.0574,0.0574,0.0574,0.0574,0.0574
0.0587,0.0587,0.0587,0.0587,0.0587,0.0587,0.0587,0.0587,0.0587,0.0587,0.0587,0.0587,0.0587,0.0587,0.0587,0.0587,0.0587,0.0587,0.0587,0.0587,0.0587,0.0587,0.0587,0.0587,0.0587,0.0587,0.0587,0.0587,0.0587,0.0587,0.0587,0.0587,0.0587,0.0587,0.0587,0.0587,0.0587,0.0587,0.0587,0.0587,0.0587,0.0587,0.0587,0.0587,0.0587,0.0587,0.0587,0.0587,0.0587,0.0587,0.0587,0.0587,0.0587,0.0587,0.0587,0.0587,0.0587,0.0587,0.0587,0.0587,0.0587,0.0587,0.0587,0.0587,0.0587,0.0587,0.0587,0.0587,0.0587,0.0587,0.0587,0.0587,0.0587,0.0587,-0.2141,-0.2197,-0.2229,-0.2256,-0.2258,-0.2266,-0.1571,-0.1558,-0.1561,-0.1570,-0.1582,-0.1600,-0.1630,-0.1674,-0.2261,-0.2255,-0.2206,-0.2168,-0.2104,0.0587,0.0587,0.0587,0.0587,0.0587,0.0587,0.0587,0.0587,0.0587,0.0587,0.0587,0.0587,0.0587,0.0587,0.0587,0.0587,0.0587,0.0587,0.0587,0.0587,0.0587,0.0587,0.0587,0.0587,0.0587,0.0587,0.0587,0.0587,0.0587,0.0587,0.0587,0.0587,0.0587,0.0587,0.0587,0.0587,0.0587,0.0587,0.0587,0.0587,0.0587,0.0587,0.0587,0.0587,0.0587,0.0587,0.0587,0.0587,0.0587,0.0587,0.0587,0.0587,0.0587,0.0587,0.0587,0.0587,0.0587,0.0587,0.0587,0.0587,0.0587,0.0587,0.0587,0.0587,0.0587,0.0587,0.0587
0.0599,0.0599,0.0599,0.0599,0.0599,0.0599,0.0599,0.0599,0.0599,0.0599,0.0599,0.0599,0.0599,0.0599,0.0599,0.0599,0.0599,0.0599,0.0599,0.0599,0.0599,0.0599,0.0599,0.0599,0.0599,0.0599,0.0599,0.0599,0.0599,0.0599,0.0599,0.0599,0.0599,0.0599,0.0599,0.0599,0.0599,0.0599,0.0599,0.0599,0.0599,0.0599,0.0599,0.0599,0.0599,0.0599,0.0599,0.0599,0.0599,0.0599,0.0599,0.0599,0.0599,0.0599,0.0599,0.0599,0.0599,0.0599,0.0599,0.0599,0.0599,0.0599,0.0599,0.0599,0.0599,0.0599,0.0599,0.0599,0.0599,0.0599,0.0599,0.0599,0.0599,-0.0725,-0.2183,-0.2223,-0.2254,-0.2256,-0.1640,-0.1616,-0.1602,-0.1588,-0.1591,-0.1597,-0.1608,-0.1625,-0.1652,-0.1689,-0.1746,-0.2251,-0.2246,-0.2209,-0.2169,0.0261,0.0599,0.0599,0.0599,0.0599,0.0599,0.0599,0.0599,0.0599,0.0599,0.0599,0.0599,0.0599,0.0599,0.0599,0.0599,0.0599,0.0599,0.0599,0.0599,0.0599,0.0599,0.0599,0.0599,0.0599,0.0599,0.0599,0.0599,0.0599,0.0599,0.0599,0.0599,0.0599,0.0599,0.0599,0.0599,0.0599,0.0599,0.0599,0.0599,0.0599,0.0599,0.0599,0.0599,0.0599,0.0599,0.0599,0.0599,0.0599,0.0599,0.0599,0.0599,0.0599,0.0599,0.0599,0.0599,0.0599,0.0599,0.0599,0.0599,0.0599,0.0599,0.0599,0.0599,0.0599,0.0599,0.0599
0.0612,0.0612,0.0612,0.0612,0.0612,0.0612,0.0612,0.0612,0.0612,0.0612,0.0612,0.0612,0.0612,0.0612,0.0612,0.0612,0.0612,0.0612,0.0612,0.0612,0.0612,0.0612,0.0612,0.0612,0.0612,0.0612,0.0612,0.0612,0.0612,0.0612,0.0612,0.0612,0.0612,0.0612,0.0612,0.0612,0.0612,0.0612,0.0612,0.0612,0.0612,0.0612,0.0612,0.0612,0.0612,0.0612,0.0612,0.0612,0.0612,0.0612,0.0612,0.0612,0.0612,0.0612,0.0612,0.0612,0.0612,0.0612,0.0612,0.0612,0.0612,0.0612,0.0612,0.0612,0.0612,0.0612,0.0612,0.0612,0.0612,0.0612,0.0612,0.0612,0.0612,-0.2095,-0.2215,-0.2247,-0.2252,-0.1702,-0.1669,-0.1646,-0.1631,-0.1620,-0.1618,-0.1626,-0.1634,-0.1649,-0.1672,-0.1704,-0.1753,-0.1818,-0.2247,-0.2251,-0.2213,-0.2155,0.0612,0.0612,0.0612,0.0612,0.0612,0.0612,0.0612,0.0612,0.0612,0.0612,0.0612,0.0612,0.0612,0.0612,0.0612,0.0612,0.0612,0.0612,0.0612,0.0612,0.0612,0.0612,0.0612,0.0612,0.0612,0.0612,0.0612,0.0612,0.0612,0.0612,0.0612,0.0612,0.0612,0.0612,0.0612,0.0612,0.0612,0.0612,0.0612,0.0612,0.0612,0.0612,0.0612,0.0612,0.0612,0.0612,0.0612,0.0612,0.0612,0.0612,0.0612,0.0612,0.0612,0.0612,0.0612,0.0612,0.0612,0.0612,0.0612,0.0612,0.0612,0.0612,0.0612,0.0612,0.0612,0.0612
0.0625,0.0625,0.0625,0.0625,0.0625,0.0625,0.0625,0.0625,0.0625,0.0625,0.0625,0.0625,0.0625,0.0625,0.0625,0.0625,0.0625,0.0625,0.0625,0.0625,0.0625,0.0625,0.0625,0.0625,0.0625,0.0625,0.0625,0.0625,0.0625,0.0625,0.0625,0.0625,0.0625,0.0625,0.0625,0.0625,0.0625,0.0625,0.0625,0.0625,0.0625,0.0625,0.0625,0.0625,0.0625,0.0625,0.0625,0.0625,0.0625,0.0625,0.0625,0.0625,0.0625,0.0625,0.0625,0.0625,0.0625,0.0625,0.0625,0.0625,0.0625,0.0625,0.0625,0.0625,0.0625,0.0625,0.0625,0.0625,0.0625,0.0625,0.0625,0.0625,0.0625,-0.2163,-0.2241,-0.2260,-0.1793,-0.1726,-0.1694,-0.1673,-0.1659,-0.1650,-0.1646,-0.1651,-0.1658,-0.1670,-0.1691,-0.1721,-0.1763,-0.1821,-0.1874,-0.2253,-0.2258,-0.2212,-0.0641,0.0625,0.0625,0.0625,0.0625,0.0625,0.0625,0.0625,0.0625,0.0625,0.0625,0.0625,0.0625,0.0625,0.0625,0.0625,0.0625,0.0625,0.0625,0.0625,0.0625,0.0625,0.0625,0.0625,0.0625,0.0625,0.0625,0.0625,0.0625,0.0625,0.0625,0.0625,0.0625,0.0625,0.0625,0.0625,0.0625,0.0625,0.0625,0.0625,0.0625,0.0625,0.0625,0.0625,0.0625,0.0625,0.0625,0.0625,0.0625,0.0625,0.0625,0.0625,0.0625,0.0625,0.0625,0.0625,0.0625,0.0625,0.0625,0.0625,0.0625,0.0625,0.0625,0.0625,0.0625,0.0625
0.0637,0.0637,0.0637,0.0637,0.0637,0.0637,0.0637,0.0637,0.0637,0.0637,0.0637,0.0637,0.0637,0.0637,0.0637,0.0637,0.0637,0.0637,0.0637,0.0637,0.0637,0.0637,0.0637,0.0637,0.0637,0.0637,0.0637,0.0637,0.0637,0.0637,0.0637,0.0637,0.0637,0.0637,0.0637,0.0637,0.0637,0.0637,0.0637,0.0637,0.0637,0.0637,0.0637,0.0637,0.0637,0.0637,0.0637,0.0637,0.0637,0.0637,0.0637,0.0637,0.0637,0.0637,0.0637,0.0637,0.0637,0.0637,0.0637,0.0637,0.0637,0.0637,0.0637,0.0637,0.0637,0.0637,0.0637,0.0637,0.0637,0.0637,0.0637,0.0637,0.0637,-0.2221,-0.2265,-0.2107,-0.1793,-0.1750,-0.1719,-0.1699,-0.1685,-0.1678,-0.1673,-0.1675,-0.1680,-0.1692,-0.1712,-0.1739,-0.1776,-0.1827,-0.1875,-0.1914,-0.2260,-0.2261,-0.2199,0.0638,0.0638,0.0638,0.0638,0.0638,0.0638,0.0638,0.0638,0.0638,0.0638,0.0638,0.0638,0.0638,0.0638,0.0638,0.0638,0.0638,0.0638,0.0638,0.0638,0.0638,0.0638,0.0638,0.0638,0.0638,0.0638,0.0638,0.0638,0.0638,0.0638,0.0638,0.0638,0.0638,0.0638,0.0638,0.0638,0.0638,0.0638,0.0638,0.0638,0.0638,0.0638,0.0638,0.0638,0.0638,0.0638,0.0638,0.0638,0.0638,0.0638,0.0638,0.0638,0.0638,0.0638,0.0638,0.0638,0.0638,0.0638,0.0638,0.0638,0.0638,0.0638,0.0638,0.0638,0.0638
0.0650,0.0650,0.0650,0.0650,0.0650,0.0650,0.0650,0.0650,0.0650,0.0650,0.0650,0.0650,0.0650,0.0650,0.0650,0.0650,0.0650,0.0650,0.0650,0.0650,0.0650,0.0650,0.0650,0.0650,0.0650,0.0650,0.0650,0.0650,0.0650,0.0650,0.0650,0.0650,0.0650,0.0650,0.0650,0.0650,0.0650,0.0650,0.0650,0.0650,0.0650,0.0650,0.0650,0.0650,0.0650,0.0650,0.0650,0.0650,0.0650,0.0650,0.0650,0.0650,0.0650,0.0650,0.0650,0.0650,0.0650,0.0650,0.0650,0.0650,0.0650,0.0650,0.0650,0.0650,0.0650,0.0650,0.0650,0.0650,0.0650,0.0650,0.0650,0.0650,-0.2146,-0.2255,-0.2263,-0.1861,-0.1813,-0.1773,-0.1743,-0.1723,-0.1710,-0.1703,-0.1699,-0.1699,-0.1703,-0.1714,-0.1732,-0.1758,-0.1791,-0.1835,-0.1879,-0.1917,-0.1953,-0.2260,-0.2252,-0.0178,0.0650,0.0650,0.0650,0.0650,0.0650,0.0650,0.0650,0.0650,0.0650,0.0650,0.0650,0.0650,0.0650,0.0650,0.0650,0.0650,0.0650,0.0650,0.0650,0.0650,0.0650,0.0650,0.0650,0.0650,0.0650,0.0650,0.0650,0.0650,0.0650,0.0650,0.0650,0.0650,0.0650,0.0650,0.0650,0.0650,0.0650,0.0650,0.0650,0.0650,0.0650,0.0650,0.0650,0.0650,0.0650,0.0650,0.0650,0.0650,0.0650,0.0650,0.0650,0.0650,0.0650,0.0650,0.0650,0.0650,0.0650,0.0650,0.0650,0.0650,0.0650,0.0650,0.0650,0.0650
0.0663,0.0663,0.0663,0.0663,0.0663,0.0663,0.0663,0.0663,0.0663,0.0663,0.0663,0.0663,0.0663,0.0663,0.0663,0.0663,0.0663,0.0663,0.0663,0.0663,0.0663,0.0663,0.0663,0.0663,0.0663,0.0663,0.0663,0.0663,0.0663,0.0663,0.0663,0.0663,0.0663,0.0663,0.0663,0.0663,0.0663,0.0663,0.0663,0.0663,0.0663,0.0663,0.0663,0.0663,0.0663,0.0663,0.0663,0.0663,0.0663,0.0663,0.0663,0.0663,0.0663,0.0663,0.0663,0.0663,0.0663,0.0663,0.0663,0.0663,0.0663,0.0663,0.0663,0.0663,0.0663,0.0663,0.0663,0.0663,0.0663,0.0663,0.0663,0.0663,-0.2176,-0.2246,-0.1953,-0.1878,-0.1832,-0.1796,-0.1767,-0.1747,-0.1735,-0.1728,-0.1723,-0.1723,-0.1727,-0.1736,-0.1753,-0.1776,-0.1807,-0.1845,-0.1884,-0.1921,-0.1956,-0.1995,-0.2248,-0.2232,0.0663,0.0663,0.0663,0.0663,0.0663,0.0663,0.0663,0.0663,0.0663,0.0663,0.0663,0.0663,0.0663,0.0663,0.0663,0.0663,0.0663,0.0663,0.0663,0.0663,0.0663,0.0663,0.0663,0.0663,0.0663,0.0663,0.0663,0.0663,0.0663,0.0663,0.0663,0.0663,0.0663,0.0663,0.0663,0.0663,0.0663,0.0663,0.0663,0.0663,0.0663,0.0663,0.0663,0.0663,0.0663,0.0663,0.0663,0.0663,0.0663,0.0663,0.0663,0.0663,0.0663,0.0663,0.0663,0.0663,0.0663,0.0663,0.0663,0.0663,0.0663,0.0663,0.0663,0.0663
0.0676,0.0676,0.0676,0.0676,0.0676,0.0676,0.0676,0.0676,0.0676,0.0676,0.0676,0.0676,0.0676,0.0676,0.0676,0.0676,0.0676,0.0676,0.0669,0.0633,0.0633,0.0633,0.0633,0.0633,0.0633,0.0633,0.0633,0.0633,0.0633,0.0633,0.0633,0.0633,0.0633,0.0633,0.0633,0.0633,0.0633,0.0633,0.0633,0.0633,0.0633,0.0633,0.0633,0.0633,0.0633,0.0633,0.0633,0.0633,0.0633,0.0633,0.0633,0.0633,0.0633,0.0633,0.0633,0.0633,0.0633,0.0633,0.0633,0.0633,0.0633,0.0633,0.0633,0.0633,0.0633,0.0633,0.0633,0.0633,0.0633,0.0633,0.0633,0.0633,-0.2248,-0.2133,-0.1967,-0.1895,-0.1853,-0.1818,-0.1791,-0.1771,-0.1758,-0.1752,-0.1748,-0.1747,-0.1750,-0.1758,-0.1773,-0.1794,-0.1822,-0.1856,-0.1890,-0.1927,-0.1962,-0.1997,-0.2071,-0.2227,-0.1144,0.0633,0.0633,0.0633,0.0633,0.0633,0.0633,0.0633,0.0633,0.0633,0.0633,0.0633,0.0633,0.0633,0.0633,0.0633,0.0633,0.0633,0.0633,0.0633,0.0633,0.0633,0.0633,0.0633,0.0633,0.0633,0.0633,0.0633,0.0633,0.0633,0.0633,0.0633,0.0633,0.0633,0.0633,0.0633,0.0633,0.0633,0.0633,0.0633,0.0633,0.0633,0.0633,0.0633,0.0633,0.0633,0.0633,0.0633,0.0633,0.0633,0.0633,0.0633,0.0633,0.0636,0.0671,0.0676,0.0676,0.0676,0.0676,0.0676,0.0676,0.0676,0.0676,0.0676
0.0689,0.0689,0.0689,0.0689,0.0689,0.0689,0.0689,0.0689,0.0689,0.0689,0.0689,0.0689,0.0689,0.0689,0.0689,0.0689,0.0661,0.0592,0.0559,0.0559,0.0559,0.0559,0.0559,0.0559,0.0559,0.0559,0.0559,0.0559,0.0559,0.0559,0.0559,0.0559,0.0559,0.0559,0.0559,0.0559,0.0559,0.0559,0.0559,0.0559,0.0559,0.0559,0.0559,0.0559,0.0559,0.0559,0.0559,0.0559,0.0559,0.0559,0.0559,0.0559,0.0559,0.0559,0.0559,0.0559,0.0559,0.0559,0.0559,0.0559,0.0559,0.0559,0.0559,0.0559,0.0559,0.0559,0.0559,0.0559,0.0559,0.0559,0.0559,0.0559,-0.2222,-0.2061,-0.1980,-0.1912,-0.1872,-0.1841,-0.1815,-0.1796,-0.1783,-0.1774,-0.1770,-0.1770,-0.1772,-0.1779,-0.1792,-0.1811,-0.1837,-0.1866,-0.1898,-0.1933,-0.1967,-0.2001,-0.2055,-0.2204,-0.2252,0.0559,0.0559,0.0559,0.0559,0.0559,0.0559,0.0559,0.0559,0.0559,0.0559,0.0559,0.0559,0.0559,0.0559,0.0559,0.0559,0.0559,0.0559,0.0559,0.0559,0.0559,0.0559,0.0559,0.0559,0.0559,0.0559,0.0559,0.0559,0.0559,0.0559,0.0559,0.0559,0.0559,0.0559,0.0559,0.0559,0.0559,0.0559,0.0559,0.0559,0.0559,0.0559,0.0559,0.0559,0.0559,0.0559,0.0559,0.0559,0.0559,0.0559,0.0559,0.0559,0.0559,0.0559,0.0594,0.0683,0.0690,0.0690,0.0690,0.0690,0.0690,0.0690,0.0690
0.0703,0.0703,0.0703,0.0703,0.0703,0.0703,0.0703,0.0703,0.0703,0.0703,0.0703,0.0703,0.0703,0.0703,0.0703,0.0565,0.0511,0.0488,0.0488,0.0488,0.0488,0.0488,0.0488,0.0488,0.0488,0.0488,0.0488,0.0488,0.0488,0.0488,0.0488,0.0488,0.0488,0.0488,0.0488,0.0488,0.0488,0.0488,0.0488,0.0488,0.0488,0.0488,0.0488,0.0488,0.0488,0.0488,0.0488,0.0488,0.0488,0.0488,0.0488,0.0488,0.0488,0.0488,0.0488,0.0488,0.0488,0.0488,0.0488,0.0488,0.0488,0.0488,0.0488,0.0488,0.0488,0.0488,0.0488,0.0488,0.0488,0.0488,0.0488,-0.2124,-0.2198,-0.2069,-0.1995,-0.1930,-0.1891,-0.1862,-0.1839,-0.1820,-0.1807,-0.1798,-0.1793,-0.1792,-0.1794,-0.1800,-0.1811,-0.1828,-0.1850,-0.1876,-0.1905,-0.1939,-0.1973,-0.2006,-0.2045,-0.2140,-0.2248,-0.0762,0.0488,0.0488,0.0488,0.0488,0.0488,0.0488,0.0488,0.0488,0.0488,0.0488,0.0488,0.0488,0.0488,0.0488,0.0488,0.0488,0.0488,0.0488,0.0488,0.0488,0.0488,0.0488,0.0488,0.0488,0.0488,0.0488,0.0488,0.0488,0.0488,0.0488,0.0488,0.0488,0.0488,0.0488,0.0488,0.0488,0.0488,0.0488,0.0488,0.0488,0.0488,0.0488,0.0488,0.0488,0.0488,0.0488,0.0488,0.0488,0.0488,0.0488,0.0488,0.0488,0.0488,0.0488,0.0503,0.0563,0.0703,0.0703,0.0703,0.0703,0.0703,0.0703
0.0716,0.0716,0.0716,0.0716,0.0716,0.0716,0.0716,0.0716,0.0716,0.0716,0.0716,0.0716,0.0716,0.0716,0.0482,0.0434,0.0420,0.0420,0.0420,0.0420,0.0420,0.0420,0.0420,0.0420,0.0420,0.0420,0.0420,0.0420,0.0420,0.0420,0.0420,0.0420,0.0420,0.0420,0.0420,0.0420,0.0420,0.0420,0.0420,0.0420,0.0420,0.0420,0.0420,0.0420,0.0420,0.0420,0.0420,0.0420,0.0420,0.0420,0.0420,0.0420,0.0420,0.0420,0.0420,0.0420,0.0420,0.0420,0.0420,0.0420,0.0420,0.0420,0.0420,0.0420,0.0420,0.0420,0.0420,0.0420,0.0420,0.0420,0.0420,-0.2229,-0.2139,-0.2078,-0.2008,-0.1947,-0.1909,-0.1882,-0.1862,-0.1844,-0.1831,-0.1823,-0.1817,-0.1814,-0.1815,-0.1820,-0.1830,-0.1845,-0.1865,-0.1887,-0.1913,-0.1945,-0.1979,-0.2011,-0.2045,-0.2122,-0.2194,-0.2248,0.0420,0.0420,0.0420,0.0420,0.0420,0.0420,0.0420,0.0420,0.0420,0.0420,0.0420,0.0420,0.0420,0.0420,0.0420,0.0420,0.0420,0.0420,0.0420,0.0420,0.0420,0.0420,0.0420,0.0420,0.0420,0.0420,0.0420,0.0420,0.0420,0.0420,0.0420,0.0420,0.0420,0.0420,0.0420,0.0420,0.0420,0.0420,0.0420,0.0420,0.0420,0.0420,0.0420,0.0420,0.0420,0.0420,0.0420,0.0420,0.0420,0.0420,0.0420,0.0420,0.0420,0.0420,0.0420,0.0422,0.0469,0.0716,0.0716,0.0716,0.0716,0.0716
0.0729,0.0729,0.0729,0.0729,0.0729,0.0729,0.0729,0.0729,0.0729,0.0729,0.0729,0.0729,0.0729,0.0405,0.0361,0.0353,0.0353,0.0353,0.0353,0.0353,0.0353,0.0353,0.0353,0.0353,0.0353,0.0353,0.0353,0.0353,0.0353,0.0353,0.0353,0.0353,0.0353,0.0353,0.0353,0.0353,0.0353,0.0353,0.0353,0.0353,0.0353,0.0353,0.0353,0.0353,0.0353,0.0353,0.0353,0.0353,0.0353,0.0353,0.0353,0.0353,0.0353,0.0353,0.0353,0.0353,0.0353,0.0353,0.0353,0.0353,0.0353,0.0353,0.0353,0.0353,0.0353,0.0353,0.0353,0.0353,0.0353,0.0353,0.0353,-0.2260,-0.2145,-0.2087,-0.2021,-0.1965,-0.1927,-0.1901,-0.1882,-0.1867,-0.1854,-0.1847,-0.1841,-0.1837,-0.1837,-0.1841,-0.1849,-0.1861,-0.1879,-0.1898,-0.1922,-0.1952,-0.1985,-0.2016,-0.2047,-0.2112,-0.2183,-0.2254,-0.0407,0.0353,0.0353,0.0353,0.0353,0.0353,0.0353,0.0353,0.0353,0.0353,0.0353,0.0353,0.0353,0.0353,0.0353,0.0353,0.0353,0.0353,0.0353,0.0353,0.0353,0.0353,0.0353,0.0353,0.0353,0.0353,0.0353,0.0353,0.0353,0.0353,0.0353,0.0353,0.0353,0.0353,0.0353,0.0353,0.0353,0.0353,0.0353,0.0353,0.0353,0.0353,0.0353,0.0353,0.0353,0.0353,0.0353,0.0353,0.0353,0.0353,0.0353,0.0353,0.0353,0.0353,0.0353,0.0353,0.0353,0.0384,0.0549,0.0729,0.0729,0.0729
0.0743,0.0743,0.0743,0.0743,0.0743,0.0743,0.0743,0.0743,0.0743,0.0743,0.0743,0.0662,0.0332,0.0292,0.0290,0.0290,0.0290,0.0290,0.0290,0.0290,0.0290,0.0290,0.0290,0.0290,0.0290,0.0290,0.0290,0.0290,0.0290,0.0290,0.0290,0.0290,0.0290,0.0290,0.0290,0.0290,0.0290,0.0290,0.0290,0.0290,0.0290,0.0290,0.0290,0.0290,0.0290,0.0290,0.0290,0.0290,0.0290,0.0290,0.0290,0.0290,0.0290,0.0290,0.0290,0.0290,0.0290,0.0290,0.0290,0.0290,0.0290,0.0290,0.0290,0.0290,0.0290,0.0290,0.0290,0.0290,0.0290,0.0290,-0.0983,-0.2206,-0.2149,-0.2096,-0.2035,-0.1982,-0.1945,-0.1920,-0.1902,-0.1888,-0.1876,-0.1868,-0.1863,-0.1859,-0.1858,-0.1861,-0.1868,-0.1879,-0.1894,-0.1911,-0.1931,-0.1960,-0.1990,-0.2021,-0.2051,-0.2107,-0.2168,-0.2230,-0.2249,0.0290,0.0290,0.0290,0.0290,0.0290,0.0290,0.0290,0.0290,0.0290,0.0290,0.0290,0.0290,0.0290,0.0290,0.0290,0.0290,0.0290,0.0290,0.0290,0.0290,0.0290,0.0290,0.0290,0.0290,0.0290,0.0290,0.0290,0.0290,0.0290,0.0290,0.0290,0.0290,0.0290,0.0290,0.0290,0.0290,0.0290,0.0290,0.0290,0.0290,0.0290,0.0290,0.0290,0.0290,0.0290,0.0290,0.0290,0.0290,0.0290,0.0290,0.0290,0.0290,0.0290,0.0290,0.0290,0.0290,0.0290,0.0302,0.0352,0.0743,0.0743
0.0756,0.0756,0.0756,0.0756,0.0756,0.0756,0.0756,0.0756,0.0756,0.0756,0.0470,0.0262,0.0228,0.0228,0.0228,0.0228,0.0228,0.0228,0.0228,0.0228,0.0228,0.0228,0.0228,0.0228,0.0228,0.0228,0.0228,0.0228,0.0228,0.0228,0.0228,0.0228,0.0228,0.0228,0.0228,0.0228,0.0228,0.0228,0.0228,0.0228,0.0228,0.0228,0.0228,0.0228,0.0228,0.0228,0.0228,0.0228,0.0228,0.0228,0.0228,0.0228,0.0228,0.0228,0.0228,0.0228,0.0228,0.0228,0.0228,0.0228,0.0228,0.0228,0.0228,0.0228,0.0228,0.0228,0.0228,0.0228,0.0228,0.0228,-0.2240,-0.2207,-0.2154,-0.2105,-0.2051,-0.1998,-0.1962,-0.1938,-0.1920,-0.1907,-0.1897,-0.1889,-0.1885,-0.1881,-0.1880,-0.1881,-0.1886,-0.1896,-0.1910,-0.1926,-0.1943,-0.1968,-0.1996,-0.2026,-0.2055,-0.2103,-0.2159,-0.2224,-0.2258,0.0228,0.0228,0.0228,0.0228,0.0228,0.0228,0.0228,0.0228,0.0228,0.0228,0.0228,0.0228,0.0228,0.0228,0.0228,0.0228,0.0228,0.0228,0.0228,0.0228,0.0228,0.0228,0.0228,0.0228,0.0228,0.0228,0.0228,0.0228,0.0228,0.0228,0.0228,0.0228,0.0228,0.0228,0.0228,0.0228,0.0228,0.0228,0.0228,0.0228,0.0228,0.0228,0.0228,0.0228,0.0228,0.0228,0.0228,0.0228,0.0228,0.0228,0.0228,0.0228,0.0228,0.0228,0.0228,0.0228,0.0228,0.0228,0.0229,0.0272,0.0698
0.0770,0.0770,0.0770,0.0770,0.0770,0.0770,0.0770,0.0770,0.0770,0.0236,0.0194,0.0169,0.0169,0.0169,0.0169,0.0169,0.0169,0.0169,0.0169,0.0169,0.0169,0.0169,0.0169,0.0169,0.0169,0.0169,0.0169,0.0169,0.0169,0.0169,0.0169,0.0169,0.0169,0.0169,0.0169,0.0169,0.0169,0.0169,0.0169,0.0169,0.0169,0.0169,0.0169,0.0169,0.0169,0.0169,0.0169,0.0169,0.0169,0.0169,0.0169,0.0169,0.0169,0.0169,0.0169,0.0169,0.0169,0.0169,0.0169,0.0169,0.0169,0.0169,0.0169,0.0169,0.0169,0.0169,0.0169,0.0169,0.0169,0.0169,-0.2236,-0.2209,-0.2158,-0.2113,-0.2063,-0.2015,-0.1980,-0.1955,-0.1939,-0.1926,-0.1917,-0.1909,-0.1905,-0.1902,-0.1900,-0.1900,-0.1904,-0.1914,-0.1926,-0.1941,-0.1957,-0.1979,-0.2004,-0.2031,-0.2060,-0.2102,-0.2155,-0.2216,-0.2262,0.0169,0.0169,0.0169,0.0169,0.0169,0.0169,0.0169,0.0169,0.0169,0.0169,0.0169,0.0169,0.0169,0.0169,0.0169,0.0169,0.0169,0.0169,0.0169,0.0169,0.0169,0.0169,0.0169,0.0169,0.0169,0.0169,0.0169,0.0169,0.0169,0.0169,0.0169,0.0169,0.0169,0.0169,0.0169,0.0169,0.0169,0.0169,0.0169,0.0169,0.0169,0.0169,0.0169,0.0169,0.0169,0.0169,0.0169,0.0169,0.0169,0.0169,0.0169,0.0169,0.0169,0.0169,0.0169,0.0169,0.0169,0.0169,0.0169,0.0169,0.0195
0.0784,0.0784,0.0784,0.0784,0.0784,0.0784,0.0784,0.0784,0.0169,0.0129,0.0111,0.0111,0.0111,0.0111,0.0111,0.0111,0.0111,0.0111,0.0111,0.0111,0.0111,0.0111,0.0111,0.0111,0.0111,0.0111,0.0111,0.0111,0.0111,0.0111,0.0111,0.0111,0.0111,0.0111,0.0111,0.0111,0.0111,0.0111,0.0111,0.0111,0.0111,0.0111,0.0111,0.0111,0.0111,0.0111,0.0111,0.0111,0.0111,0.0111,0.0111,0.0111,0.0111,0.0111,0.0111,0.0111,0.0111,0.0111,0.0111,0.0111,0.0111,0.0111,0.0111,0.0111,0.0111,0.0111,0.0111,0.0111,0.0111,0.0111,-0.2253,-0.2210,-0.2161,-0.2121,-0.2077,-0.2031,-0.1997,-0.1973,-0.1956,-0.1944,-0.1936,-0.1928,-0.1924,-0.1921,-0.1919,-0.1919,-0.1923,-0.1931,-0.1943,-0.1957,-0.1973,-0.1992,-0.2014,-0.2037,-0.2064,-0.2103,-0.2152,-0.2211,-0.2260,0.0111,0.0111,0.0111,0.0111,0.0111,0.0111,0.0111,0.0111,0.0111,0.0111,0.0111,0.0111,0.0111,0.0111,0.0111,0.0111,0.0111,0.0111,0.0111,0.0111,0.0111,0.0111,0.0111,0.0111,0.0111,0.0111,0.0111,0.0111,0.0111,0.0111,0.0111,0.0111,0.0111,0.0111,0.0111,0.0111,0.0111,0.0111,0.0111,0.0111,0.0111,0.0111,0.0111,0.0111,0.0111,0.0111,0.0111,0.0111,0.0111,0.0111,0.0111,0.0111,0.0111,0.0111,0.0111,0.0111,0.0111,0.0111,0.0111,0.0111,0.0111
0.0798,0.0798,0.0798,0.0798,0.0798,0.0798,0.0798,0.0105,0.0066,0.0056,0.0056,0.0056,0.0056,0.0056,0.0056,0.0056,0.0056,0.0056,0.0056,0.0056,0.0056,0.0056,0.0056,0.0056,0.0056,0.0056,0.0056,0.0056,0.0056,0.0056,0.0056,0.0056,0.0056,0.0056,0.0056,0.0056,0.0056,0.0056,0.0056,0.0056,0.0056,0.0056,0.0056,0.0056,0.0056,0.0056,0.0056,0.0056,0.0056,0.0056,0.0056,0.0056,0.0056,0.0056,0.0056,0.0056,0.0056,0.0056,0.0056,0.0056,0.0056,0.0056,0.0056,0.0056,0.0056,0.0056,0.0056,0.0056,0.0056,0.0056,-0.2252,-0.2212,-0.2165,-0.2129,-0.2090,-0.2047,-0.2014,-0.1990,-0.1973,-0.1962,-0.1954,-0.1947,-0.1943,-0.1940,-0.1938,-0.1938,-0.1941,-0.1949,-0.1959,-0.1973,-0.1988,-0.2007,-0.2025,-0.2043,-0.2068,-0.2105,-0.2151,-0.2206,-0.2257,-0.0816,0.0056,0.0056,0.0056,0.0056,0.0056,0.0056,0.0056,0.0056,0.0056,0.0056,0.0056,0.0056,0.0056,0.0056,0.0056,0.0056,0.0056,0.0056,0.0056,0.0056,0.0056,0.0056,0.0056,0.0056,0.0056,0.0056,0.0056,0.0056,0.0056,0.0056,0.0056,0.0056,0.0056,0.0056,0.0056,0.0056,0.0056,0.0056,0.0056,0.0056,0.0056,0.0056,0.0056,0.0056,0.0056,0.0056,0.0056,0.0056,0.0056,0.0056,0.0056,0.0056,0.0056,0.0056,0.0056,0.0056,0.0056,0.0056,0.0056,0.0056
0.0812,0.0812,0.0812,0.0812,0.0812,0.0594,0.0043,0.0007,0.0002,0.0002,0.0002,0.0002,0.0002,0.0002,0.0002,0.0002,0.0002,0.0002,0.0002,0.0002,0.0002,0.0002,0.0002,0.0002,0.0002,0.0002,0.0002,0.0002,0.0002,0.0002,0.0002,0.0002,0.0002,0.0002,0.0002,0.0002,0.0002,0.0002,0.0002,0.0002,0.0002,0.0002,0.0002,0.0002,0.0002,0.0002,0.0002,0.0002,0.0002,0.0002,0.0002,0.0002,0.0002,0.0002,0.0002,0.0002,0.0002,0.0002,0.0002,0.0002,0.0002,0.0002,0.0002,0.0002,0.0002,0.0002,0.0002,0.0002,0.0002,0.0002,-0.2252,-0.2213,-0.2169,-0.2137,-0.2103,-0.2062,-0.2031,-0.2007,-0.1990,-0.1979,-0.1971,-0.1965,-0.1961,-0.1958,-0.1956,-0.1957,-0.1960,-0.1966,-0.1976,-0.1988,-0.2003,-0.2021,-0.2037,-0.2050,-0.2073,-0.2108,-0.2151,-0.2203,-0.2254,-0.1134,0.0002,0.0002,0.0002,0.0002,0.0002,0.0002,0.0002,0.0002,0.0002,0.0002,0.0002,0.0002,0.0002,0.0002,0.0002,0.0002,0.0002,0.0002,0.0002,0.0002,0.0002,0.0002,0.0002,0.0002,0.0002,0.0002,0.0002,0.0002,0.0002,0.0002,0.0002,0.0002,0.0002,0.0002,0.0002,0.0002,0.0002,0.0002,0.0002,0.0002,0.0002,0.0002,0.0002,0.0002,0.0002,0.0002,0.0002,0.0002,0.0002,0.0002,0.0002,0.0002,0.0002,0.0002,0.0002,0.0002,0.0002,0.0002,0.0002,0.0002
0.0826,0.0826,0.0826,0.0826,0.0251,-0.0016,-0.0049,-0.0050,-0.0050,-0.0050,-0.0050,-0.0050,-0.0050,-0.0050,-0.0050,-0.0050,-0.0050,-0.0050,-0.0050,-0.0050,-0.0050,-0.0050,-0.0050,-0.0050,-0.0050,-0.0050,-0.0050,-0.0050,-0.0050,-0.0050,-0.0050,-0.0050,-0.0050,-0.0050,-0.0050,-0.0050,-0.0050,-0.0050,-0.0050,-0.0050,-0.0050,-0.0050,-0.0050,-0.0050,-0.0050,-0.0050,-0.0050,-0.0050,-0.0050,-0.0050,-0.0050,-0.0050,-0.0050,-0.0050,-0.0050,-0.0050,-0.0050,-0.0050,-0.0050,-0.0050,-0.0050,-0.0050,-0.0050,-0.0050,-0.0050,-0.0050,-0.0050,-0.0050,-0.0050,-0.0050,-0.2252,-0.2214,-0.2174,-0.2145,-0.2115,-0.2078,-0.2048,-0.2025,-0.2008,-0.1996,-0.1988,-0.1982,-0.1979,-0.1976,-0.1975,-0.1975,-0.1978,-0.1984,-0.1992,-0.2003,-0.2018,-0.2034,-0.2049,-0.2060,-0.2079,-0.2111,-0.2153,-0.2201,-0.2252,-0.1159,-0.0050,-0.0050,-0.0050,-0.0050,-0.0050,-0.0050,-0.0050,-0.0050,-0.0050,-0.0050,-0.0050,-0.0050,-0.0050,-0.0050,-0.0050,-0.0050,-0.0050,-0.0050,-0.0050,-0.0050,-0.0050,-0.0050,-0.0050,-0.0050,-0.0050,-0.0050,-0.0050,-0.0050,-0.0050,-0.0050,-0.0050,-0.0050,-0.0050,-0.0050,-0.0050,-0.0050,-0.0050,-0.0050,-0.0050,-0.0050,-0.0050,-0.0050,-0.0050,-0.0050,-0.0050,-0.0050,-0.0050,-0.0050,-0.0050,-0.0050,-0.0050,-0.0050,-0.0050,-0.0050,-0.0050,-0.0050,-0.0050,-0.0050,-0.0050,-0.0050
0.0840,0.0840,0.0840,-0.0038,-0.0074,-0.0101,-0.0101,-0.0101,-0.0101,-0.0101,-0.0101,-0.0101,-0.0101,-0.0101,-0.0101,-0.0101,-0.0101,-0.0101,-0.0101,-0.0101,-0.0101,-0.0101,-0.0101,-0.0101,-0.0101,-0.0101,-0.0101,-0.0101,-0.0101,-0.0101,-0.0101,-0.0101,-0.0101,-0.0101,-0.0101,-0.0101,-0.0101,-0.0101,-0.0101,-0.0101,-0.0101,-0.0101,-0.0101,-0.0101,-0.0101,-0.0101,-0.0101,-0.0101,-0.0101,-0.0101,-0.0101,-0.0101,-0.0101,-0.0101,-0.0101,-0.0101,-0.0101,-0.0101,-0.0101,-0.0101,-0.0101,-0.0101,-0.0101,-0.0101,-0.0101,-0.0101,-0.0101,-0.0101,-0.0101,-0.0101,-0.2266,-0.2215,-0.2179,-0.2153,-0.2126,-0.2093,-0.2065,-0.2043,-0.2025,-0.2013,-0.2005,-0.2000,-0.1996,-0.1994,-0.1992,-0.1993,-0.1996,-0.2001,-0.2008,-0.2018,-0.2032,-0.2048,-0.2061,-0.2071,-0.2086,-0.2115,-0.2155,-0.2201,-0.2250,-0.1184,-0.0101,-0.0101,-0.0101,-0.0101,-0.0101,-0.0101,-0.0101,-0.0101,-0.0101,-0.0101,-0.0101,-0.0101,-0.0101,-0.0101,-0.0101,-0.0101,-0.0101,-0.0101,-0.0101,-0.0101,-0.0101,-0.0101,-0.0101,-0.0101,-0.0101,-0.0101,-0.0101,-0.0101,-0.0101,-0.0101,-0.0101,-0.0101,-0.0101,-0.0101,-0.0101,-0.0101,-0.0101,-0.0101,-0.0101,-0.0101,-0.0101,-0.0101,-0.0101,-0.0101,-0.0101,-0.0101,-0.0101,-0.0101,-0.0101,-0.0101,-0.0101,-0.0101,-0.0101,-0.0101,-0.0101,-0.0101,-0.0101,-0.0101,-0.0101,-0.0101
0.0854,0.0854,-0.0095,-0.0129,-0.0150,-0.0150,-0.0150,-0.0150,-0.0150,-0.0150,-0.0150,-0.0150,-0.0150,-0.0150,-0.0150,-0.0150,-0.0150,-0.0150,-0.0150,-0.0150,-0.0150,-0.0150,-0.0150,-0.0150,-0.0150,-0.0150,-0.0150,-0.0150,-0.0150,-0.0150,-0.0150,-0.0150,-0.0150,-0.0150,-0.0150,-0.0150,-0.0150,-0.0150,-0.0150,-0.0150,-0.0150,-0.0150,-0.0150,-0.0150,-0.0150,-0.0150,-0.0150,-0.0150,-0.0150,-0.0150,-0.0150,-0.0150,-0.0150,-0.0150,-0.0150,-0.0150,-0.0150,-0.0150,-0.0150,-0.0150,-0.0150,-0.0150,-0.0150,-0.0150,-0.0150,-0.0150,-0.0150,-0.0150,-0.0150,-0.0150,-0.2265,-0.2217,-0.2185,-0.2161,-0.2137,-0.2108,-0.2081,-0.2060,-0.2043,-0.2030,-0.2022,-0.2016,-0.2012,-0.2010,-0.2009,-0.2010,-0.2013,-0.2018,-0.2024,-0.2033,-0.2046,-0.2060,-0.2072,-0.2082,-0.2095,-0.2120,-0.2158,-0.2202,-0.2248,-0.1208,-0.0150,-0.0150,-0.0150,-0.0150,-0.0150,-0.0150,-0.0150,-0.0150,-0.0150,-0.0150,-0.0150,-0.0150,-0.0150,-0.0150,-0.0150,-0.0150,-0.0150,-0.0150,-0.0150,-0.0150,-0.0150,-0.0150,-0.0150,-0.0150,-0.0150,-0.0150,-0.0150,-0.0150,-0.0150,-0.0150,-0.0150,-0.0150,-0.0150,-0.0150,-0.0150,-0.0150,-0.0150,-0.0150,-0.0150,-0.0150,-0.0150,-0.0150,-0.0150,-0.0150,-0.0150,-0.0150,-0.0150,-0.0150,-0.0150,-0.0150,-0.0150,-0.0150,-0.0150,-0.0150,-0.0150,-0.0150,-0.0150,-0.0150,-0.0150,-0.0150
0.0868,-0.0150,-0.0183,-0.0197,-0.0197,-0.0197,-0.0197,-0.0197,-0.0197,-0.0197,-0.0197,-0.0197,-0.0197,-0.0197,-0.0197,-0.0197,-0.0197,-0.0197,-0.0197,-0.0197,-0.0197,-0.0197,-0.0197,-0.0197,-0.0197,-0.0197,-0.0197,-0.0197,-0.0197,-0.0197,-0.0197,-0.0197,-0.0197,-0.0197,-0.0197,-0.0197,-0.0197,-0.0197,-0.0197,-0.0197,-0.0197,-0.0197,-0.0197,-0.0197,-0.0197,-0.0197,-0.0197,-0.0197,-0.0197,-0.0197,-0.0197,-0.0197,-0.0197,-0.0197,-0.0197,-0.0197,-0.0197,-0.0197,-0.0197,-0.0197,-0.0197,-0.0197,-0.0197,-0.0197,-0.0197,-0.0197,-0.0197,-0.0197,-0.0197,-0.0197,-0.2253,-0.2220,-0.2191,-0.2169,-0.2147,-0.2122,-0.2097,-0.2077,-0.2061,-0.2049,-0.2039,-0.2033,-0.2028,-0.2026,-0.2025,-0.2027,-0.2029,-0.2034,-0.2039,-0.2047,-0.2059,-0.2072,-0.2085,-0.2093,-0.2105,-0.2126,-0.2160,-0.2203,-0.2248,-0.1231,-0.0197,-0.0197,-0.0197,-0.0197,-0.0197,-0.0197,-0.0197,-0.0197,-0.0197,-0.0197,-0.0197,-0.0197,-0.0197,-0.0197,-0.0197,-0.0197,-0.0197,-0.0197,-0.0197,-0.0197,-0.0197,-0.0197,-0.0197,-0.0197,-0.0197,-0.0197,-0.0197,-0.0197,-0.0197,-0.0197,-0.0197,-0.0197,-0.0197,-0.0197,-0.0197,-0.0197,-0.0197,-0.0197,-0.0197,-0.0197,-0.0197,-0.0197,-0.0197,-0.0197,-0.0197,-0.0197,-0.0197,-0.0197,-0.0197,-0.0197,-0.0197,-0.0197,-0.0197,-0.0197,-0.0197,-0.0197,-0.0197,-0.0197,-0.0197,-0.0197
-0.0203,-0.0235,-0.0243,-0.0243,-0.0243,-0.0243,-0.0243,-0.0243,-0.0243,-0.0243,-0.0243,-0.0243,-0.0243,-0.0243,-0.0243,-0.0243,-0.0243,-0.0243,-0.0243,-0.0243,-0.0243,-0.0243,-0.0243,-0.0243,-0.0243,-0.0243,-0.0243,-0.0243,-0.0243,-0.0243,-0.0243,-0.0243,-0.0243,-0.0243,-0.0243,-0.0243,-0.0243,-0.0243,-0.0243,-0.0243,-0.0243,-0.0243,-0.0243,-0.0243,-0.0243,-0.0243,-0.0243,-0.0243,-0.0243,-0.0243,-0.0243,-0.0243,-0.0243,-0.0243,-0.0243,-0.0243,-0.0243,-0.0243,-0.0243,-0.0243,-0.0243,-0.0243,-0.0243,-0.0243,-0.0243,-0.0243,-0.0243,-0.0243,-0.0243,-0.0243,-0.2254,-0.2225,-0.2198,-0.2177,-0.2157,-0.2134,-0.2112,-0.2093,-0.2078,-0.2066,-0.2057,-0.2050,-0.2045,-0.2041,-0.2041,-0.2042,-0.2045,-0.2049,-0.2054,-0.2061,-0.2072,-0.2085,-0.2097,-0.2105,-0.2115,-0.2133,-0.2164,-0.2205,-0.2248,-0.2013,-0.0243,-0.0243,-0.0243,-0.0243,-0.0243,-0.0243,-0.0243,-0.0243,-0.0243,-0.0243,-0.0243,-0.0243,-0.0243,-0.0243,-0.0243,-0.0243,-0.0243,-0.0243,-0.0243,-0.0243,-0.0243,-0.0243,-0.0243,-0.0243,-0.0243,-0.0243,-0.0243,-0.0243,-0.0243,-0.0243,-0.0243,-0.0243,-0.0243,-0.0243,-0.0243,-0.0243,-0.0243,-0.0243,-0.0243,-0.0243,-0.0243,-0.0243,-0.0243,-0.0243,-0.0243,-0.0243,-0.0243,-0.0243,-0.0243,-0.0243,-0.0243,-0.0243,-0.0243,-0.0243,-0.0243,-0.0243,-0.0243,-0.0243,-0.0243,-0.0243
-0.0284,-0.0288,-0.0288,-0.0288,-0.0288,-0.0288,-0.0288,-0.0288,-0.0288,-0.0288,-0.0288,-0.0288,-0.0288,-0.0288,-0.0288,-0.0288,-0.0288,-0.0288,-0.0288,-0.0288,-0.0288,-0.0288,-0.0288,-0.0288,-0.0288,-0.0288,-0.0288,-0.0288,-0.0288,-0.0288,-0.0288,-0.0288,-0.0288,-0.0288,-0.0288,-0.0288,-0.0288,-0.0288,-0.0288,-0.0288,-0.0288,-0.0288,-0.0288,-0.0288,-0.0288,-0.0288,-0.0288,-0.0288,-0.0288,-0.0288,-0.0288,-0.0288,-0.0288,-0.0288,-0.0288,-0.0288,-0.0288,-0.0288,-0.0288,-0.0288,-0.0288,-0.0288,-0.0288,-0.0288,-0.0288,-0.0288,-0.0288,-0.0288,-0.0288,-0.0288,-0.2256,-0.2230,-0.2205,-0.2186,-0.2167,-0.2147,-0.2126,-0.2108,-0.2094,-0.2083,-0.2074,-0.2067,-0.2061,-0.2057,-0.2056,-0.2057,-0.2060,-0.2064,-0.2068,-0.2075,-0.2085,-0.2097,-0.2109,-0.2117,-0.2126,-0.2141,-0.2169,-0.2207,-0.2248,-0.2268,-0.0288,-0.0288,-0.0288,-0.0288,-0.0288,-0.0288,-0.0288,-0.0288,-0.0288,-0.0288,-0.0288,-0.0288,-0.0288,-0.0288,-0.0288,-0.0288,-0.0288,-0.0288,-0.0288,-0.0288,-0.0288,-0.0288,-0.0288,-0.0288,-0.0288,-0.0288,-0.0288,-0.0288,-0.0288,-0.0288,-0.0288,-0.0288,-0.0288,-0.0288,-0.0288,-0.0288,-0.0288,-0.0288,-0.0288,-0.0288,-0.0288,-0.0288,-0.0288,-0.0288,-0.0288,-0.0288,-0.0288,-0.0288,-0.0288,-0.0288,-0.0288,-0.0288,-0.0288,-0.0288,-0.0288,-0.0288,-0.0288,-0.0288,-0.0288,-0.0288
-0.0331,-0.0331,-0.0331,-0.0331,-0.0331,-0.0331,-0.0331,-0.0331,-0.0331,-0.0331,-0.0331,-0.0331,-0.0331,-0.0331,-0.0331,-0.0331,-0.0331,-0.0331,-0.0331,-0.0331,-0.0331,-0.0331,-0.0331,-0.0331,-0.0331,-0.0331,-0.0331,-0.0331,-0.0331,-0.0331,-0.0331,-0.0331,-0.0331,-0.0331,-0.0331,-0.0331,-0.0331,-0.0331,-0.0331,-0.0331,-0.0331,-0.0331,-0.0331,-0.0331,-0.0331,-0.0331,-0.0331,-0.0331,-0.0331,-0.0331,-0.0331,-0.0331,-0.0331,-0.0331,-0.0331,-0.0331,-0.0331,-0.0331,-0.0331,-0.0331,-0.0331,-0.0331,-0.0331,-0.0331,-0.0331,-0.0331,-0.0331,-0.0331,-0.0331,-0.0331,-0.2259,-0.2236,-0.2214,-0.2195,-0.2177,-0.2158,-0.2139,-0.2123,-0.2109,-0.2099,-0.2091,-0.2084,-0.2078,-0.2074,-0.2071,-0.2072,-0.2075,-0.2078,-0.2082,-0.2089,-0.2098,-0.2110,-0.2121,-0.2129,-0.2137,-0.2150,-0.2174,-0.2210,-0.2249,-0.2268,-0.0331,-0.0331,-0.0331,-0.0331,-0.0331,-0.0331,-0.0331,-0.0331,-0.0331,-0.0331,-0.0331,-0.0331,-0.0331,-0.0331,-0.0331,-0.0331,-0.0331,-0.0331,-0.0331,-0.0331,-0.0331,-0.0331,-0.0331,-0.0331,-0.0331,-0.0331,-0.0331,-0.0331,-0.0331,-0.0331,-0.0331,-0.0331,-0.0331,-0.0331,-0.0331,-0.0331,-0.0331,-0.0331,-0.0331,-0.0331,-0.0331,-0.0331,-0.0331,-0.0331,-0.0331,-0.0331,-0.0331,-0.0331,-0.0331,-0.0331,-0.0331,-0.0331,-0.0331,-0.0331,-0.0331,-0.0331,-0.0331,-0.0331,-0.0331,-0.0331
-0.0373,-0.0373,-0.0373,-0.0373,-0.0373,-0.0373,-0.0373,-0.0373,-0.0373,-0.0373,-0.0373,-0.0373,-0.0373,-0.0373,-0.0373,-0.0373,-0.0373,-0.0373,-0.0373,-0.0373,-0.0373,-0.0373,-0.0373,-0.0373,-0.0373,-0.0373,-0.0373,-0.0373,-0.0373,-0.0373,-0.0373,-0.0373,-0.0373,-0.0373,-0.0373,-0.0373,-0.0373,-0.0373,-0.0373,-0.0373,-0.0373,-0.0373,-0.0373,-0.0373,-0.0373,-0.0373,-0.0373,-0.0373,-0.0373,-0.0373,-0.0373,-0.0373,-0.0373,-0.0373,-0.0373,-0.0373,-0.0373,-0.0373,-0.0373,-0.0373,-0.0373,-0.0373,-0.0373,-0.0373,-0.0373,-0.0373,-0.0373,-0.0373,-0.0373,-0.0373,-0.2263,-0.2243,-0.2222,-0.2204,-0.2187,-0.2169,-0.2152,-0.2137,-0.2124,-0.2114,-0.2106,-0.2100,-0.2095,-0.2090,-0.2086,-0.2087,-0.2089,-0.2093,-0.2097,-0.2103,-0.2112,-0.2122,-0.2134,-0.2141,-0.2148,-0.2160,-0.2181,-0.2213,-0.2250,-0.1319,-0.0373,-0.0373,-0.0373,-0.0373,-0.0373,-0.0373,-0.0373,-0.0373,-0.0373,-0.0373,-0.0373,-0.0373,-0.0373,-0.0373,-0.0373,-0.0373,-0.0373,-0.0373,-0.0373,-0.0373,-0.0373,-0.0373,-0.0373,-0.0373,-0.0373,-0.0373,-0.0373,-0.0373,-0.0373,-0.0373,-0.0373,-0.0373,-0.0373,-0.0373,-0.0373,-0.0373,-0.0373,-0.0373,-0.0373,-0.0373,-0.0373,-0.0373,-0.0373,-0.0373,-0.0373,-0.0373,-0.0373,-0.0373,-0.0373,-0.0373,-0.0373,-0.0373,-0.0373,-0.0373,-0.0373,-0.0373,-0.0373,-0.0373,-0.0373,-0.0373
-0.0414,-0.0414,-0.0414,-0.0414,-0.0414,-0.0414,-0.0414,-0.0414,-0.0414,-0.0414,-0.0414,-0.0414,-0.0414,-0.0414,-0.0414,-0.0414,-0.0414,-0.0414,-0.0414,-0.0414,-0.0414,-0.0414,-0.0414,-0.0414,-0.0414,-0.0414,-0.0414,-0.0414,-0.0414,-0.0414,-0.0414,-0.0414,-0.0414,-0.0414,-0.0414,-0.0414,-0.0414,-0.0414,-0.0414,-0.0414,-0.0414,-0.0414,-0.0414,-0.0414,-0.0414,-0.0414,-0.0414,-0.0414,-0.0414,-0.0414,-0.0414,-0.0414,-0.0414,-0.0414,-0.0414,-0.0414,-0.0414,-0.0414,-0.0414,-0.0414,-0.0414,-0.0414,-0.0414,-0.0414,-0.0414,-0.0414,-0.0414,-0.0414,-0.0414,-0.0414,-0.2260,-0.2251,-0.2231,-0.2214,-0.2197,-0.2181,-0.2165,-0.2150,-0.2139,-0.2129,-0.2121,-0.2115,-0.2110,-0.2107,-0.2103,-0.2102,-0.2104,-0.2107,-0.2111,-0.2116,-0.2125,-0.2135,-0.2146,-0.2153,-0.2160,-0.2170,-0.2188,-0.2218,-0.2251,-0.1340,-0.0414,-0.0414,-0.0414,-0.0414,-0.0414,-0.0414,-0.0414,-0.0414,-0.0414,-0.0414,-0.0414,-0.0414,-0.0414,-0.0414,-0.0414,-0.0414,-0.0414,-0.0414,-0.0414,-0.0414,-0.0414,-0.0414,-0.0414,-0.0414,-0.0414,-0.0414,-0.0414,-0.0414,-0.0414,-0.0414,-0.0414,-0.0414,-0.0414,-0.0414,-0.0414,-0.0414,-0.0414,-0.0414,-0.0414,-0.0414,-0.0414,-0.0414,-0.0414,-0.0414,-0.0414,-0.0414,-0.0414,-0.0414,-0.0414,-0.0414,-0.0414,-0.0414,-0.0414,-0.0414,-0.0414,-0.0414,-0.0414,-0.0414,-0.0414,-0.0414
-0.0454,-0.0454,-0.0454,-0.0454,-0.0454,-0.0454,-0.0454,-0.0454,-0.0454,-0.0454,-0.0454,-0.0454,-0.0454,-0.0454,-0.0454,-0.0454,-0.0454,-0.0454,-0.0454,-0.0454,-0.0454,-0.0454,-0.0454,-0.0454,-0.0454,-0.0454,-0.0454,-0.0454,-0.0454,-0.0454,-0.0454,-0.0454,-0.0454,-0.0454,-0.0454,-0.0454,-0.0454,-0.0454,-0.0454,-0.0454,-0.0454,-0.0454,-0.0454,-0.0454,-0.0454,-0.0454,-0.0454,-0.0454,-0.0454,-0.0454,-0.0454,-0.0454,-0.0454,-0.0454,-0.0454,-0.0454,-0.0454,-0.0454,-0.0454,-0.0454,-0.0454,-0.0454,-0.0454,-0.0454,-0.0454,-0.0454,-0.0454,-0.0454,-0.0454,-0.0454,-0.2266,-0.2258,-0.2241,-0.2224,-0.2208,-0.2192,-0.2177,-0.2163,-0.2152,-0.2143,-0.2136,-0.2130,-0.2126,-0.2122,-0.2119,-0.2117,-0.2119,-0.2121,-0.2125,-0.2130,-0.2137,-0.2147,-0.2158,-0.2166,-0.2172,-0.2181,-0.2196,-0.2222,-0.2253,-0.1360,-0.0454,-0.0454,-0.0454,-0.0454,-0.0454,-0.0454,-0.0454,-0.0454,-0.0454,-0.0454,-0.0454,-0.0454,-0.0454,-0.0454,-0.0454,-0.0454,-0.0454,-0.0454,-0.0454,-0.0454,-0.0454,-0.0454,-0.0454,-0.0454,-0.0454,-0.0454,-0.0454,-0.0454,-0.0454,-0.0454,-0.0454,-0.0454,-0.0454,-0.0454,-0.0454,-0.0454,-0.0454,-0.0454,-0.0454,-0.0454,-0.0454,-0.0454,-0.0454,-0.0454,-0.0454,-0.0454,-0.0454,-0.0454,-0.0454,-0.0454,-0.0454,-0.0454,-0.0454,-0.0454,-0.0454,-0.0454,-0.0454,-0.0454,-0.0454,-0.0454
-0.0492,-0.0492,-0.0492,-0.0492,-0.0492,-0.0492,-0.0492,-0.0492,-0.0492,-0.0492,-0.0492,-0.0492,-0.0492,-0.0492,-0.0492,-0.0492,-0.0492,-0.0492,-0.0492,-0.0492,-0.0492,-0.0492,-0.0492,-0.0492,-0.0492,-0.0492,-0.0492,-0.0492,-0.0492,-0.0492,-0.0492,-0.0492,-0.0492,-0.0492,-0.0492,-0.0492,-0.0492,-0.0492,-0.0492,-0.0492,-0.0492,-0.0492,-0.0492,-0.0492,-0.0492,-0.0492,-0.0492,-0.0492,-0.0492,-0.0492,-0.0492,-0.0492,-0.0492,-0.0492,-0.0492,-0.0492,-0.0492,-0.0492,-0.0492,-0.0492,-0.0492,-0.0492,-0.0492,-0.0492,-0.0492,-0.0492,-0.0492,-0.0492,-0.0492,-0.0492,-0.0715,-0.2267,-0.2250,-0.2234,-0.2218,-0.2203,-0.2188,-0.2175,-0.2165,-0.2157,-0.2150,-0.2144,-0.2140,-0.2137,-0.2134,-0.2131,-0.2133,-0.2136,-0.2139,-0.2142,-0.2149,-0.2159,-0.2170,-0.2178,-0.2183,-0.2191,-0.2204,-0.2226,-0.2255,-0.1380,-0.0492,-0.0492,-0.0492,-0.0492,-0.0492,-0.0492,-0.0492,-0.0492,-0.0492,-0.0492,-0.0492,-0.0492,-0.0492,-0.0492,-0.0492,-0.0492,-0.0492,-0.0492,-0.0492,-0.0492,-0.0492,-0.0492,-0.0492,-0.0492,-0.0492,-0.0492,-0.0492,-0.0492,-0.0492,-0.0492,-0.0492,-0.0492,-0.0492,-0.0492,-0.0492,-0.0492,-0.0492,-0.0492,-0.0492,-0.0492,-0.0492,-0.0492,-0.0492,-0.0492,-0.0492,-0.0492,-0.0492,-0.0492,-0.0492,-0.0492,-0.0492,-0.0492,-0.0492,-0.0492,-0.0492,-0.0492,-0.0492,-0.0492,-0.0492,-0.0492
-0.0530,-0.0530,-0.0530,-0.0530,-0.0530,-0.0530,-0.0530,-0.0530,-0.0530,-0.0530,-0.0530,-0.0530,-0.0530,-0.0530,-0.0530,-0.0530,-0.0530,-0.0530,-0.0530,-0.0530,-0.0530,-0.0530,-0.0530,-0.0530,-0.0530,-0.0530,-0.0530,-0.0530,-0.0530,-0.0530,-0.0530,-0.0530,-0.0530,-0.0530,-0.0530,-0.0530,-0.0530,-0.0530,-0.0530,-0.0530,-0.0530,-0.0530,-0.0530,-0.0530,-0.0530,-0.0530,-0.0530,-0.0530,-0.0530,-0.0530,-0.0530,-0.0530,-0.0530,-0.0530,-0.0530,-0.0530,-0.0530,-0.0530,-0.0530,-0.0530,-0.0530,-0.0530,-0.0530,-0.0530,-0.0530,-0.0530,-0.0530,-0.0530,-0.0530,-0.0530,-0.0530,-0.2263,-0.2259,-0.2244,-0.2229,-0.2214,-0.2200,-0.2188,-0.2178,-0.2171,-0.2164,-0.2159,-0.2155,-0.2152,-0.2150,-0.2146,-0.2146,-0.2149,-0.2152,-0.2155,-0.2161,-0.2171,-0.2181,-0.2190,-0.2195,-0.2202,-0.2213,-0.2232,-0.2258,-0.1400,-0.0530,-0.0530,-0.0530,-0.0530,-0.0530,-0.0530,-0.0530,-0.0530,-0.0530,-0.0530,-0.0530,-0.0530,-0.0530,-0.0530,-0.0530,-0.0530,-0.0530,-0.0530,-0.0530,-0.0530,-0.0530,-0.0530,-0.0530,-0.0530,-0.0530,-0.0530,-0.0530,-0.0530,-0.0530,-0.0530,-0.0530,-0.0530,-0.0530,-0.0530,-0.0530,-0.0530,-0.0530,-0.0530,-0.0530,-0.0530,-0.0530,-0.0530,-0.0530,-0.0530,-0.0530,-0.0530,-0.0530,-0.0530,-0.0530,-0.0530,-0.0530,-0.0530,-0.0530,-0.0530,-0.0530,-0.0530,-0.0530,-0.0530,-0.0530,-0.0530
-0.0567,-0.0567,-0.0567,-0.0567,-0.0567,-0.0567,-0.0567,-0.0567,-0.0567,-0.0567,-0.0567,-0.0567,-0.0567,-0.0567,-0.0567,-0.0567,-0.0567,-0.0567,-0.0567,-0.0567,-0.0567,-0.0567,-0.0567,-0.0567,-0.0567,-0.0567,-0.0567,-0.0567,-0.0567,-0.0567,-0.0567,-0.0567,-0.0567,-0.0567,-0.0567,-0.0567,-0.0567,-0.0567,-0.0567,-0.0567,-0.0567,-0.0567,-0.0567,-0.0567,-0.0567,-0.0567,-0.0567,-0.0567,-0.0567,-0.0567,-0.0567,-0.0567,-0.0567,-0.0567,-0.0567,-0.0567,-0.0567,-0.0567,-0.0567,-0.0567,-0.0567,-0.0567,-0.0567,-0.0567,-0.0567,-0.0567,-0.0567,-0.0567,-0.0567,-0.0567,-0.0567,-0.1065,-0.2266,-0.2254,-0.2240,-0.2226,-0.2212,-0.2201,-0.2191,-0.2184,-0.2178,-0.2173,-0.2169,-0.2166,-0.2165,-0.2162,-0.2161,-0.2162,-0.2165,-0.2168,-0.2173,-0.2182,-0.2192,-0.2201,-0.2207,-0.2213,-0.2223,-0.2239,-0.2263,-0.0567,-0.0567,-0.0567,-0.0567,-0.0567,-0.0567,-0.0567,-0.0567,-0.0567,-0.0567,-0.0567,-0.0567,-0.0567,-0.0567,-0.0567,-0.0567,-0.0567,-0.0567,-0.0567,-0.0567,-0.0567,-0.0567,-0.0567,-0.0567,-0.0567,-0.0567,-0.0567,-0.0567,-0.0567,-0.0567,-0.0567,-0.0567,-0.0567,-0.0567,-0.0567,-0.0567,-0.0567,-0.0567,-0.0567,-0.0567,-0.0567,-0.0567,-0.0567,-0.0567,-0.0567,-0.0567,-0.0567,-0.0567,-0.0567,-0.0567,-0.0567,-0.0567,-0.0567,-0.0567,-0.0567,-0.0567,-0.0567,-0.0567,-0.0567,-0.0567,-0.0567
-0.0602,-0.0602,-0.0602,-0.0602,-0.0602,-0.0602,-0.0602,-0.0602,-0.0602,-0.0602,-0.0602,-0.0602,-0.0602,-0.0602,-0.0602,-0.0602,-0.0602,-0.0602,-0.0602,-0.0602,-0.0602,-0.0602,-0.0602,-0.0602,-0.0602,-0.0602,-0.0602,-0.0602,-0.0602,-0.0602,-0.0602,-0.0602,-0.0602,-0.0602,-0.0602,-0.0602,-0.0602,-0.0602,-0.0602,-0.0602,-0.0602,-0.0602,-0.0602,-0.0602,-0.0602,-0.0602,-0.0602,-0.0602,-0.0602,-0.0602,-0.0602,-0.0602,-0.0602,-0.0602,-0.0602,-0.0602,-0.0602,-0.0602,-0.0602,-0.0602,-0.0602,-0.0602,-0.0602,-0.0602,-0.0602,-0.0602,-0.0602,-0.0602,-0.0602,-0.0602,-0.0602,-0.0602,-0.2266,-0.2264,-0.2251,-0.2237,-0.2224,-0.2213,-0.2204,-0.2197,-0.2191,-0.2187,-0.2183,-0.2180,-0.2179,-0.2177,-0.2176,-0.2177,-0.2179,-0.2182,-0.2185,-0.2193,-0.2204,-0.2213,-0.2218,-0.2224,-0.2232,-0.2247,-0.2267,-0.0602,-0.0602,-0.0602,-0.0602,-0.0602,-0.0602,-0.0602,-0.0602,-0.0602,-0.0602,-0.0602,-0.0602,-0.0602,-0.0602,-0.0602,-0.0602,-0.0602,-0.0602,-0.0602,-0.0602,-0.0602,-0.0602,-0.0602,-0.0602,-0.0602,-0.0602,-0.0602,-0.0602,-0.0602,-0.0602,-0.0602,-0.0602,-0.0602,-0.0602,-0.0602,-0.0602,-0.0602,-0.0602,-0.0602,-0.0602,-0.0602,-0.0602,-0.0602,-0.0602,-0.0602,-0.0602,-0.0602,-0.0602,-0.0602,-0.0602,-0.0602,-0.0602,-0.0602,-0.0602,-0.0602,-0.0602,-0.0602,-0.0602,-0.0602,-0.0602,-0.0602
-0.0637,-0.0637,-0.0637,-0.0637,-0.0637,-0.0637,-0.0637,-0.0637,-0.0637,-0.0637,-0.0637,-0.0637,-0.0637,-0.0637,-0.0637,-0.0637,-0.0637,-0.0637,-0.0637,-0.0637,-0.0637,-0.0637,-0.0637,-0.0637,-0.0637,-0.0637,-0.0637,-0.0637,-0.0637,-0.0637,-0.0637,-0.0637,-0.0637,-0.0637,-0.0637,-0.0637,-0.0637,-0.0637,-0.0637,-0.0637,-0.0637,-0.0637,-0.0637,-0.0637,-0.0637,-0.0637,-0.0637,-0.0637,-0.0637,-0.0637,-0.0637,-0.0637,-0.0637,-0.0637,-0.0637,-0.0637,-0.0637,-0.0637,-0.0637,-0.0637,-0.0637,-0.0637,-0.0637,-0.0637,-0.0637,-0.0637,-0.0637,-0.0637,-0.0637,-0.0637,-0.0637,-0.0637,-0.0637,-0.2263,-0.2261,-0.2249,-0.2237,-0.2226,-0.2217,-0.2210,-0.2205,-0.2200,-0.2197,-0.2194,-0.2193,-0.2192,-0.2190,-0.2191,-0.2193,-0.2195,-0.2198,-0.2205,-0.2215,-0.2224,-0.2229,-0.2234,-0.2242,-0.2255,-0.2262,-0.0637,-0.0637,-0.0637,-0.0637,-0.0637,-0.0637,-0.0637,-0.0637,-0.0637,-0.0637,-0.0637,-0.0637,-0.0637,-0.0637,-0.0637,-0.0637,-0.0637,-0.0637,-0.0637,-0.0637,-0.0637,-0.0637,-0.0637,-0.0637,-0.0637,-0.0637,-0.0637,-0.0637,-0.0637,-0.0637,-0.0637,-0.0637,-0.0637,-0.0637,-0.0637,-0.0637,-0.0637,-0.0637,-0.0637,-0.0637,-0.0637,-0.0637,-0.0637,-0.0637,-0.0637,-0.0637,-0.0637,-0.0637,-0.0637,-0.0637,-0.0637,-0.0637,-0.0637,-0.0637,-0.0637,-0.0637,-0.0637,-0.0637,-0.0637,-0.0637,-0.0637
-0.0671,-0.0671,-0.0671,-0.0671,-0.0671,-0.0671,-0.0671,-0.0671,-0.0671,-0.0671,-0.0671,-0.0671,-0.0671,-0.0671,-0.0671,-0.0671,-0.0671,-0.0671,-0.0671,-0.0671,-0.0671,-0.0671,-0.0671,-0.0671,-0.0671,-0.0671,-0.0671,-0.0671,-0.0671,-0.0671,-0.0671,-0.0671,-0.0671,-0.0671,-0.0671,-0.0671,-0.0671,-0.0671,-0.0671,-0.0671,-0.0671,-0.0671,-0.0671,-0.0671,-0.0671,-0.0671,-0.0671,-0.0671,-0.0671,-0.0671,-0.0671,-0.0671,-0.0671,-0.0671,-0.0671,-0.0671,-0.0671,-0.0671,-0.0671,-0.0671,-0.0671,-0.0671,-0.0671,-0.0671,-0.0671,-0.0671,-0.0671,-0.0671,-0.0671,-0.0671,-0.0671,-0.0671,-0.0671,-0.0805,-0.2266,-0.2260,-0.2249,-0.2239,-0.2231,-0.2224,-0.2218,-0.2214,-0.2211,-0.2208,-0.2207,-0.2207,-0.2205,-0.2205,-0.2207,-0.2209,-0.2211,-0.2217,-0.2227,-0.2236,-0.2241,-0.2245,-0.2252,-0.2264,-0.1536,-0.0671,-0.0671,-0.0671,-0.0671,-0.0671,-0.0671,-0.0671,-0.0671,-0.0671,-0.0671,-0.0671,-0.0671,-0.0671,-0.0671,-0.0671,-0.0671,-0.0671,-0.0671,-0.0671,-0.0671,-0.0671,-0.0671,-0.0671,-0.0671,-0.0671,-0.0671,-0.0671,-0.0671,-0.0671,-0.0671,-0.0671,-0.0671,-0.0671,-0.0671,-0.0671,-0.0671,-0.0671,-0.0671,-0.0671,-0.0671,-0.0671,-0.0671,-0.0671,-0.0671,-0.0671,-0.0671,-0.0671,-0.0671,-0.0671,-0.0671,-0.0671,-0.0671,-0.0671,-0.0671,-0.0671,-0.0671,-0.0671,-0.0671,-0.0671,-0.0671,-0.0671
-0.0704,-0.0704,-0.0704,-0.0704,-0.0704,-0.0704,-0.0704,-0.0704,-0.0704,-0.0704,-0.0704,-0.0704,-0.0704,-0.0704,-0.0704,-0.0704,-0.0704,-0.0704,-0.0704,-0.0704,-0.0704,-0.0704,-0.0704,-0.0704,-0.0704,-0.0704,-0.0704,-0.0704,-0.0704,-0.0704,-0.0704,-0.0704,-0.0704,-0.0704,-0.0704,-0.0704,-0.0704,-0.0704,-0.0704,-0.0704,-0.0704,-0.0704,-0.0704,-0.0704,-0.0704,-0.0704,-0.0704,-0.0704,-0.0704,-0.0704,-0.0704,-0.0704,-0.0704,-0.0704,-0.0704,-0.0704,-0.0704,-0.0704,-0.0704,-0.0704,-0.0704,-0.0704,-0.0704,-0.0704,-0.0704,-0.0704,-0.0704,-0.0704,-0.0704,-0.0704,-0.0704,-0.0704,-0.0704,-0.0704,-0.1683,-0.2267,-0.2261,-0.2251,-0.2244,-0.2237,-0.2231,-0.2227,-0.2224,-0.2222,-0.2222,-0.2221,-0.2219,-0.2219,-0.2221,-0.2222,-0.2224,-0.2229,-0.2238,-0.2247,-0.2252,-0.2256,-0.2262,-0.2264,-0.0704,-0.0704,-0.0704,-0.0704,-0.0704,-0.0704,-0.0704,-0.0704,-0.0704,-0.0704,-0.0704,-0.0704,-0.0704,-0.0704,-0.0704,-0.0704,-0.0704,-0.0704,-0.0704,-0.0704,-0.0704,-0.0704,-0.0704,-0.0704,-0.0704,-0.0704,-0.0704,-0.0704,-0.0704,-0.0704,-0.0704,-0.0704,-0.0704,-0.0704,-0.0704,-0.0704,-0.0704,-0.0704,-0.0704,-0.0704,-0.0704,-0.0704,-0.0704,-0.0704,-0.0704,-0.0704,-0.0704,-0.0704,-0.0704,-0.0704,-0.0704,-0.0704,-0.0704,-0.0704,-0.0704,-0.0704,-0.0704,-0.0704,-0.0704,-0.0704,-0.0704,-0.0704
-0.0736,-0.0736,-0.0736,-0.0736,-0.0736,-0.0736,-0.0736,-0.0736,-0.0736,-0.0736,-0.0736,-0.0736,-0.0736,-0.0736,-0.0736,-0.0736,-0.0736,-0.0736,-0.0736,-0.0736,-0.0736,-0.0736,-0.0736,-0.0736,-0.0736,-0.0736,-0.0736,-0.0736,-0.0736,-0.0736,-0.0736,-0.0736,-0.0736,-0.0736,-0.0736,-0.0736,-0.0736,-0.0736,-0.0736,-0.0736,-0.0736,-0.0736,-0.0736,-0.0736,-0.0736,-0.0736,-0.0736,-0.0736,-0.0736,-0.0736,-0.0736,-0.0736,-0.0736,-0.0736,-0.0736,-0.0736,-0.0736,-0.0736,-0.0736,-0.0736,-0.0736,-0.0736,-0.0736,-0.0736,-0.0736,-0.0736,-0.0736,-0.0736,-0.0736,-0.0736,-0.0736,-0.0736,-0.0736,-0.0736,-0.0736,-0.1823,-0.2263,-0.2264,-0.2256,-0.2250,-0.2245,-0.2240,-0.2237,-0.2236,-0.2235,-0.2235,-0.2234,-0.2233,-0.2234,-0.2236,-0.2238,-0.2241,-0.2250,-0.2258,-0.2263,-0.2266,-0.2264,-0.1056,-0.0736,-0.0736,-0.0736,-0.0736,-0.0736,-0.0736,-0.0736,-0.0736,-0.0736,-0.0736,-0.0736,-0.0736,-0.0736,-0.0736,-0.0736,-0.0736,-0.0736,-0.0736,-0.0736,-0.0736,-0.0736,-0.0736,-0.0736,-0.0736,-0.0736,-0.0736,-0.0736,-0.0736,-0.0736,-0.0736,-0.0736,-0.0736,-0.0736,-0.0736,-0.0736,-0.0736,-0.0736,-0.0736,-0.0736,-0.0736,-0.0736,-0.0736,-0.0736,-0.0736,-0.0736,-0.0736,-0.0736,-0.0736,-0.0736,-0.0736,-0.0736,-0.0736,-0.0736,-0.0736,-0.0736,-0.0736,-0.0736,-0.0736,-0.0736,-0.0736,-0.0736,-0.0736
-0.0767,-0.0767,-0.0767,-0.0767,-0.0767,-0.0767,-0.0767,-0.0767,-0.0767,-0.0767,-0.0767,-0.0767,-0.0767,-0.0767,-0.0767,-0.0767,-0.0767,-0.0767,-0.0767,-0.0767,-0.0767,-0.0767,-0.0767,-0.0767,-0.0767,-0.0767,-0.0767,-0.0767,-0.0767,-0.0767,-0.0767,-0.0767,-0.0767,-0.0767,-0.0767,-0.0767,-0.0767,-0.0767,-0.0767,-0.0767,-0.0767,-0.0767,-0.0767,-0.0767,-0.0767,-0.0767,-0.0767,-0.0767,-0.0767,-0.0767,-0.0767,-0.0767,-0.0767,-0.0767,-0.0767,-0.0767,-0.0767,-0.0767,-0.0767,-0.0767,-0.0767,-0.0767,-0.0767,-0.0767,-0.0767,-0.0767,-0.0767,-0.0767,-0.0767,-0.0767,-0.0767,-0.0767,-0.0767,-0.0767,-0.0767,-0.0767,-0.1207,-0.2259,-0.2265,-0.2263,-0.2258,-0.2254,-0.2251,-0.2249,-0.2249,-0.2248,-0.2247,-0.2246,-0.2247,-0.2249,-0.2250,-0.2253,-0.2261,-0.2269,-0.2264,-0.2267,-0.1207,-0.0767,-0.0767,-0.0767,-0.0767,-0.0767,-0.0767,-0.0767,-0.0767,-0.0767,-0.0767,-0.0767,-0.0767,-0.0767,-0.0767,-0.0767,-0.0767,-0.0767,-0.0767,-0.0767,-0.0767,-0.0767,-0.0767,-0.0767,-0.0767,-0.0767,-0.0767,-0.0767,-0.0767,-0.0767,-0.0767,-0.0767,-0.0767,-0.0767,-0.0767,-0.0767,-0.0767,-0.0767,-0.0767,-0.0767,-0.0767,-0.0767,-0.0767,-0.0767,-0.0767,-0.0767,-0.0767,-0.0767,-0.0767,-0.0767,-0.0767,-0.0767,-0.0767,-0.0767,-0.0767,-0.0767,-0.0767,-0.0767,-0.0767,-0.0767,-0.0767,-0.0767,-0.0767,-0.0767
-0.0798,-0.0798,-0.0798,-0.0798,-0.0798,-0.0798,-0.0798,-0.0798,-0.0798,-0.0798,-0.0798,-0.0798,-0.0798,-0.0798,-0.0798,-0.0798,-0.0798,-0.0798,-0.0798,-0.0798,-0.0798,-0.0798,-0.0798,-0.0798,-0.0798,-0.0798,-0.0798,-0.0798,-0.0798,-0.0798,-0.0798,-0.0798,-0.0798,-0.0798,-0.0798,-0.0798,-0.0798,-0.0798,-0.0798,-0.0798,-0.0798,-0.0798,-0.0798,-0.0798,-0.0798,-0.0798,-0.0798,-0.0798,-0.0798,-0.0798,-0.0798,-0.0798,-0.0798,-0.0798,-0.0798,-0.0798,-0.0798,-0.0798,-0.0798,-0.0798,-0.0798,-0.0798,-0.0798,-0.0798,-0.0798,-0.0798,-0.0798,-0.0798,-0.0798,-0.0798,-0.0798,-0.0798,-0.0798,-0.0798,-0.0798,-0.0798,-0.0798,-0.1351,-0.2263,-0.2263,-0.2268,-0.2266,-0.2264,-0.2262,-0.2262,-0.2262,-0.2261,-0.2260,-0.2259,-0.2261,-0.2263,-0.2265,-0.2266,-0.1903,-0.0798,-0.0798,-0.0798,-0.0798,-0.0798,-0.0798,-0.0798,-0.0798,-0.0798,-0.0798,-0.0798,-0.0798,-0.0798,-0.0798,-0.0798,-0.0798,-0.0798,-0.0798,-0.0798,-0.0798,-0.0798,-0.0798,-0.0798,-0.0798,-0.0798,-0.0798,-0.0798,-0.0798,-0.0798,-0.0798,-0.0798,-0.0798,-0.0798,-0.0798,-0.0798,-0.0798,-0.0798,-0.0798,-0.0798,-0.0798,-0.0798,-0.0798,-0.0798,-0.0798,-0.0798,-0.0798,-0.0798,-0.0798,-0.0798,-0.0798,-0.0798,-0.0798,-0.0798,-0.0798,-0.0798,-0.0798,-0.0798,-0.0798,-0.0798,-0.0798,-0.0798,-0.0798,-0.0798,-0.0798,-0.0798,-0.0798
-0.0828,-0.0828,-0.0828,-0.0828,-0.0828,-0.0828,-0.0828,-0.0828,-0.0828,-0.0828,-0.0828,-0.0828,-0.0828,-0.0828,-0.0828,-0.0828,-0.0828,-0.0828,-0.0828,-0.0828,-0.0828,-0.0828,-0.0828,-0.0828,-0.0828,-0.0828,-0.0828,-0.0828,-0.0828,-0.0828,-0.0828,-0.0828,-0.0828,-0.0828,-0.0828,-0.0828,-0.0828,-0.0828,-0.0828,-0.0828,-0.0828,-0.0828,-0.0828,-0.0828,-0.0828,-0.0828,-0.0828,-0.0828,-0.0828,-0.0828,-0.0828,-0.0828,-0.0828,-0.0828,-0.0828,-0.0828,-0.0828,-0.0828,-0.0828,-0.0828,-0.0828,-0.0828,-0.0828,-0.0828,-0.0828,-0.0828,-0.0828,-0.0828,-0.0828,-0.0828,-0.0828,-0.0828,-0.0828,-0.0828,-0.0828,-0.0828,-0.0828,-0.0828,-0.0828,-0.0828,-0.1490,-0.2268,-0.2265,-0.2264,-0.2263,-0.2263,-0.2263,-0.2261,-0.2260,-0.2263,-0.2264,-0.2266,-0.0828,-0.0828,-0.0828,-0.0828,-0.0828,-0.0828,-0.0828,-0.0828,-0.0828,-0.0828,-0.0828,-0.0828,-0.0828,-0.0828,-0.0828,-0.0828,-0.0828,-0.0828,-0.0828,-0.0828,-0.0828,-0.0828,-0.0828,-0.0828,-0.0828,-0.0828,-0.0828,-0.0828,-0.0828,-0.0828,-0.0828,-0.0828,-0.0828,-0.0828,-0.0828,-0.0828,-0.0828,-0.0828,-0.0828,-0.0828,-0.0828,-0.0828,-0.0828,-0.0828,-0.0828,-0.0828,-0.0828,-0.0828,-0.0828,-0.0828,-0.0828,-0.0828,-0.0828,-0.0828,-0.0828,-0.0828,-0.0828,-0.0828,-0.0828,-0.0828,-0.0828,-0.0828,-0.0828,-0.0828,-0.0828,-0.0828,-0.0828,-0.0828
-0.0857,-0.0857,-0.0857,-0.0857,-0.0857,-0.0857,-0.0857,-0.0857,-0.0857,-0.0857,-0.0857,-0.0857,-0.0857,-0.0857,-0.0857,-0.0857,-0.0857,-0.0857,-0.0857,-0.0857,-0.0857,-0.0857,-0.0857,-0.0857,-0.0857,-0.0857,-0.0857,-0.0857,-0.0857,-0.0857,-0.0857,-0.0857,-0.0857,-0.0857,-0.0857,-0.0857,-0.0857,-0.0857,-0.0857,-0.0857,-0.0857,-0.0857,-0.0857,-0.0857,-0.0857,-0.0857,-0.0857,-0.0857,-0.0857,-0.0857,-0.0857,-0.0857,-0.0857,-0.0857,-0.0857,-0.0857,-0.0857,-0.0857,-0.0857,-0.0857,-0.0857,-0.0857,-0.0857,-0.0857,-0.0857,-0.0857,-0.0857,-0.0857,-0.0857,-0.0857,-0.0857,-0.0857,-0.0857,-0.0857,-0.0857,-0.0857,-0.0857,-0.0857,-0.0857,-0.0857,-0.0857,-0.0857,-0.0857,-0.0857,-0.0857,-0.0857,-0.0857,-0.0857,-0.0975,-0.0857,-0.0857,-0.0857,-0.0857,-0.0857,-0.0857,-0.0857,-0.0857,-0.0857,-0.0857,-0.0857,-0.0857,-0.0857,-0.0857,-0.0857,-0.0857,-0.0857,-0.0857,-0.0857,-0.0857,-0.0857,-0.0857,-0.0857,-0.0857,-0.0857,-0.0857,-0.0857,-0.0857,-0.0857,-0.0857,-0.0857,-0.0857,-0.0857,-0.0857,-0.0857,-0.0857,-0.0857,-0.0857,-0.0857,-0.0857,-0.0857,-0.0857,-0.0857,-0.0857,-0.0857,-0.0857,-0.0857,-0.0857,-0.0857,-0.0857,-0.0857,-0.0857,-0.0857,-0.0857,-0.0857,-0.0857,-0.0857,-0.0857,-0.0857,-0.0857,-0.0857,-0.0857,-0.0857,-0.0857,-0.0857,-0.0857,-0.0857,-0.0857,-0.0857,-0.0857,-0.0857
-0.0885,-0.0885,-0.0885,-0.0885,-0.0885,-0.0885,-0.0885,-0.0885,-0.0885,-0.0885,-0.0885,-0.0885,-0.0885,-0.0885,-0.0885,-0.0885,-0.0885,-0.0885,-0.0885,-0.0885,-0.0885,-0.0885,-0.0885,-0.0885,-0.0885,-0.0885,-0.0885,-0.0885,-0.0885,-0.0885,-0.0885,-0.0885,-0.0885,-0.0885,-0.0885,-0.0885,-0.0885,-0.0885,-0.0885,-0.0885,-0.0885,-0.0885,-0.0885,-0.0885,-0.0885,-0.0885,-0.0885,-0.0885,-0.0885,-0.0885,-0.0885,-0.0885,-0.0885,-0.0885,-0.0885,-0.0885,-0.0885,-0.0885,-0.0885,-0.0885,-0.0885,-0.0885,-0.0885,-0.0885,-0.0885,-0.0885,-0.0885,-0.0885,-0.0885,-0.0885,-0.0885,-0.0885,-0.0885,-0.0885,-0.0885,-0.0885,-0.0885,-0.0885,-0.0885,-0.0885,-0.0885,-0.0885,-0.0885,-0.0885,-0.0885,-0.0885,-0.0885,-0.0885,-0.0885,-0.0885,-0.0885,-0.0885,-0.0885,-0.0885,-0.0885,-0.0885,-0.0885,-0.0885,-0.0885,-0.0885,-0.0885,-0.0885,-0.0885,-0.0885,-0.0885,-0.0885,-0.0885,-0.0885,-0.0885,-0.0885,-0.0885,-0.0885,-0.0885,-0.0885,-0.0885,-0.0885,-0.0885,-0.0885,-0.0885,-0.0885,-0.0885,-0.0885,-0.0885,-0.0885,-0.0885,-0.0885,-0.0885,-0.0885,-0.0885,-0.0885,-0.0885,-0.0885,-0.0885,-0.0885,-0.0885,-0.0885,-0.0885,-0.0885,-0.0885,-0.0885,-0.0885,-0.0885,-0.0885,-0.0885,-0.0885,-0.0885,-0.0885,-0.0885,-0.0885,-0.0885,-0.0885,-0.0885,-0.0885,-0.0885,-0.0885,-0.0885,-0.0885,-0.0885,-0.0885,-0.0885
-0.0913,-0.0913,-0.0913,-0.0913,-0.0913,-0.0913,-0.0913,-0.0913,-0.0913,-0.0913,-0.0913,-0.0913,-0.0913,-0.0913,-0.0913,-0.0913,-0.0913,-0.0913,-0.0913,-0.0913,-0.0913,-0.0913,-0.0913,-0.0913,-0.0913,-0.0913,-0.0913,-0.0913,-0.0913,-0.0913,-0.0913,-0.0913,-0.0913,-0.0913,-0.0913,-0.0913,-0.0913,-0.0913,-0.0913,-0.0913,-0.0913,-0.0913,-0.0913,-0.0913,-0.0913,-0.0913,-0.0913,-0.0913,-0.0913,-0.0913,-0.0913,-0.0913,-0.0913,-0.0913,-0.0913,-0.0913,-0.0913,-0.0913,-0.0913,-0.0913,-0.0913,-0.0913,-0.0913,-0.0913,-0.0913,-0.0913,-0.0913,-0.0913,-0.0913,-0.0913,-0.0913,-0.0913,-0.0913,-0.0913,-0.0913,-0.0913,-0.0913,-0.0913,-0.0913,-0.0913,-0.0913,-0.0913,-0.0913,-0.0913,-0.0913,-0.0913,-0.0913,-0.0913,-0.0913,-0.0913,-0.0913,-0.0913,-0.0913,-0.0913,-0.0913,-0.0913,-0.0913,-0.0913,-0.0913,-0.0913,-0.0913,-0.0913,-0.0913,-0.0913,-0.0913,-0.0913,-0.0913,-0.0913,-0.0913,-0.0913,-0.0913,-0.0913,-0.0913,-0.0913,-0.0913,-0.0913,-0.0913,-0.0913,-0.0913,-0.0913,-0.0913,-0.0913,-0.0913,-0.0913,-0.0913,-0.0913,-0.0913,-0.0913,-0.0913,-0.0913,-0.0913,-0.0913,-0.0913,-0.0913,-0.0913,-0.0913,-0.0913,-0.0913,-0.0913,-0.0913,-0.0913,-0.0913,-0.0913,-0.0913,-0.0913,-0.0913,-0.0913,-0.0913,-0.0913,-0.0913,-0.0913,-0.0913,-0.0913,-0.0913,-0.0913,-0.0913,-0.0913,-0.0913,-0.0913,-0.0913
-0.0940,-0.0940,-0.0940,-0.0940,-0.0940,-0.0940,-0.0940,-0.0940,-0.0940,-0.0940,-0.0940,-0.0940,-0.0940,-0.0940,-0.0940,-0.0940,-0.0940,-0.0940,-0.0940,-0.0940,-0.0940,-0.0940,-0.0940,-0.0940,-0.0940,-0.0940,-0.0940,-0.0940,-0.0940,-0.0940,-0.0940,-0.0940,-0.0940,-0.0940,-0.0940,-0.0940,-0.0940,-0.0940,-0.0940,-0.0940,-0.0940,-0.0940,-0.0940,-0.0940,-0.0940,-0.0940,-0.0940,-0.0940,-0.0940,-0.0940,-0.0940,-0.0940,-0.0940,-0.0940,-0.0940,-0.0940,-0.0940,-0.0940,-0.0940,-0.0940,-0.0940,-0.0940,-0.0940,-0.0940,-0.0940,-0.0940,-0.0940,-0.0940,-0.0940,-0.0940,-0.0940,-0.0940,-0.0940,-0.0940,-0.0940,-0.0940,-0.0940,-0.0940,-0.0940,-0.0940,-0.0940,-0.0940,-0.0940,-0.0940,-0.0940,-0.0940,-0.0940,-0.0940,-0.0940,-0.0940,-0.0940,-0.0940,-0.0940,-0.0940,-0.0940,-0.0940,-0.0940,-0.0940,-0.0940,-0.0940,-0.0940,-0.0940,-0.0940,-0.0940,-0.0940,-0.0940,-0.0940,-0.0940,-0.0940,-0.0940,-0.0940,-0.0940,-0.0940,-0.0940,-0.0940,-0.0940,-0.0940,-0.0940,-0.0940,-0.0940,-0.0940,-0.0940,-0.0940,-0.0940,-0.0940,-0.0940,-0.0940,-0.0940,-0.0940,-0.0940,-0.0940,-0.0940,-0.0940,-0.0940,-0.0940,-0.0940,-0.0940,-0.0940,-0.0940,-0.0940,-0.0940,-0.0940,-0.0940,-0.0940,-0.0940,-0.0940,-0.0940,-0.0940,-0.0940,-0.0940,-0.0940,-0.0940,-0.0940,-0.0940,-0.0940,-0.0940,-0.0940,-0.0940,-0.0940,-0.0940
-0.0967,-0.0967,-0.0967,-0.0967,-0.0967,-0.0967,-0.0967,-0.0967,-0.0967,-0.0967,-0.0967,-0.0967,-0.0967,-0.0967,-0.0967,-0.0967,-0.0967,-0.0967,-0.0967,-0.0967,-0.0967,-0.0967,-0.0967,-0.0967,-0.0967,-0.0967,-0.0967,-0.0967,-0.0967,-0.0967,-0.0967,-0.0967,-0.0967,-0.0967,-0.0967,-0.0967,-0.0967,-0.0967,-0.0967,-0.0967,-0.0967,-0.0967,-0.0967,-0.0967,-0.0967,-0.0967,-0.0967,-0.0967,-0.0967,-0.0967,-0.0967,-0.0967,-0.0967,-0.0967,-0.0967,-0.0967,-0.0967,-0.0967,-0.0967,-0.0967,-0.0967,-0.0967,-0.0967,-0.0967,-0.0967,-0.0967,-0.0967,-0.0967,-0.0967,-0.0967,-0.0967,-0.0967,-0.0967,-0.0967,-0.0967,-0.0967,-0.0967,-0.0967,-0.0967,-0.0967,-0.0967,-0.0967,-0.0967,-0.0967,-0.0967,-0.0967,-0.0967,-0.0967,-0.0967,-0.0967,-0.0967,-0.0967,-0.0967,-0.0967,-0.0967,-0.0967,-0.0967,-0.0967,-0.0967,-0.0967,-0.0967,-0.0967,-0.0967,-0.0967,-0.0967,-0.0967,-0.0967,-0.0967,-0.0967,-0.0967,-0.0967,-0.0967,-0.0967,-0.0967,-0.0967,-0.0967,-0.0967,-0.0967,-0.0967,-0.0967,-0.0967,-0.0967,-0.0967,-0.0967,-0.0967,-0.0967,-0.0967,-0.0967,-0.0967,-0.0967,-0.0967,-0.0967,-0.0967,-0.0967,-0.0967,-0.0967,-0.0967,-0.0967,-0.0967,-0.0967,-0.0967,-0.0967,-0.0967,-0.0967,-0.0967,-0.0967,-0.0967,-0.0967,-0.0967,-0.0967,-0.0967,-0.0967,-0.0967,-0.0967,-0.0967,-0.0967,-0.0967,-0.0967,-0.0967,-0.0967
-0.0993,-0.0993,-0.0993,-0.0993,-0.0993,-0.0993,-0.0993,-0.0993,-0.0993,-0.0993,-0.0993,-0.0993,-0.0993,-0.0993,-0.0993,-0.0993,-0.0993,-0.0993,-0.0993,-0.0993,-0.0993,-0.0993,-0.0993,-0.0993,-0.0993,-0.0993,-0.0993,-0.0993,-0.0993,-0.0993,-0.0993,-0.0993,-0.0993,-0.0993,-0.0993,-0.0993,-0.0993,-0.0993,-0.0993,-0.0993,-0.0993,-0.0993,-0.0993,-0.0993,-0.0993,-0.0993,-0.0993,-0.0993,-0.0993,-0.0993,-0.0993,-0.0993,-0.0993,-0.0993,-0.0993,-0.0993,-0.0993,-0.0993,-0.0993,-0.0993,-0.0993,-0.0993,-0.0993,-0.0993,-0.0993,-0.0993,-0.0993,-0.0993,-0.0993,-0.0993,-0.0993,-0.0993,-0.0993,-0.0993,-0.0993,-0.0993,-0.0993,-0.0993,-0.0993,-0.0993,-0.0993,-0.0993,-0.0993,-0.0993,-0.0993,-0.0993,-0.0993,-0.0993,-0.0993,-0.0993,-0.0993,-0.0993,-0.0993,-0.0993,-0.0993,-0.0993,-0.0993,-0.0993,-0.0993,-0.0993,-0.0993,-0.0993,-0.0993,-0.0993,-0.0993,-0.0993,-0.0993,-0.0993,-0.0993,-0.0993,-0.0993,-0.0993,-0.0993,-0.0993,-0.0993,-0.0993,-0.0993,-0.0993,-0.0993,-0.0993,-0.0993,-0.0993,-0.0993,-0.0993,-0.0993,-0.0993,-0.0993,-0.0993,-0.0993,-0.0993,-0.0993,-0.0993,-0.0993,-0.0993,-0.0993,-0.0993,-0.0993,-0.0993,-0.0993,-0.0993,-0.0993,-0.0993,-0.0993,-0.0993,-0.0993,-0.0993,-0.0993,-0.0993,-0.0993,-0.0993,-0.0993,-0.0993,-0.0993,-0.0993,-0.0993,-0.0993,-0.0993,-0.0993,-0.0993,-0.0993
-0.1018,-0.1018,-0.1018,-0.1018,-0.1018,-0.1018,-0.1018,-0.1018,-0.1018,-0.1018,-0.1018,-0.1018,-0.1018,-0.1018,-0.1018,-0.1018,-0.1018,-0.1018,-0.1018,-0.1018,-0.1018,-0.1018,-0.1018,-0.1018,-0.1018,-0.1018,-0.1018,-0.1018,-0.1018,-0.1018,-0.1018,-0.1018,-0.1018,-0.1018,-0.1018,-0.1018,-0.1018,-0.1018,-0.1018,-0.1018,-0.1018,-0.1018,-0.1018,-0.1018,-0.1018,-0.1018,-0.1018,-0.1018,-0.1018,-0.1018,-0.1018,-0.1018,-0.1018,-0.1018,-0.1018,-0.1018,-0.1018,-0.1018,-0.1018,-0.1018,-0.1018,-0.1018,-0.1018,-0.1018,-0.1018,-0.1018,-0.1018,-0.1018,-0.1018,-0.1018,-0.1018,-0.1018,-0.1018,-0.1018,-0.1018,-0.1018,-0.1018,-0.1018,-0.1018,-0.1018,-0.1018,-0.1018,-0.1018,-0.1018,-0.1018,-0.1018,-0.1018,-0.1018,-0.1018,-0.1018,-0.1018,-0.1018,-0.1018,-0.1018,-0.1018,-0.1018,-0.1018,-0.1018,-0.1018,-0.1018,-0.1018,-0.1018,-0.1018,-0.1018,-0.1018,-0.1018,-0.1018,-0.1018,-0.1018,-0.1018,-0.1018,-0.1018,-0.1018,-0.1018,-0.1018,-0.1018,-0.1018,-0.1018,-0.1018,-0.1018,-0.1018,-0.1018,-0.1018,-0.1018,-0.1018,-0.1018,-0.1018,-0.1018,-0.1018,-0.1018,-0.1018,-0.1018,-0.1018,-0.1018,-0.1018,-0.1018,-0.1018,-0.1018,-0.1018,-0.1018,-0.1018,-0.1018,-0.1018,-0.1018,-0.1018,-0.1018,-0.1018,-0.1018,-0.1018,-0.1018,-0.1018,-0.1018,-0.1018,-0.1018,-0.1018,-0.1018,-0.1018,-0.1018,-0.1018,-0.1018
-0.1043,-0.1043,-0.1043,-0.1043,-0.1043,-0.1043,-0.1043,-0.1043,-0.1043,-0.1043,-0.1043,-0.1043,-0.1043,-0.1043,-0.1043,-0.1043,-0.1043,-0.1043,-0.1043,-0.1043,-0.1043,-0.1043,-0.1043,-0.1043,-0.1043,-0.1043,-0.1043,-0.1043,-0.1043,-0.1043,-0.1043,-0.1043,-0.1043,-0.1043,-0.1043,-0.1043,-0.1043,-0.1043,-0.1043,-0.1043,-0.1043,-0.1043,-0.1043,-0.1043,-0.1043,-0.1043,-0.1043,-0.1043,-0.1043,-0.1043,-0.1043,-0.1043,-0.1043,-0.1043,-0.1043,-0.1043,-0.1043,-0.1043,-0.1043,-0.1043,-0.1043,-0.1043,-0.1043,-0.1043,-0.1043,-0.1043,-0.1043,-0.1043,-0.1043,-0.1043,-0.1043,-0.1043,-0.1043,-0.1043,-0.1043,-0.1043,-0.1043,-0.1043,-0.1043,-0.1043,-0.1043,-0.1043,-0.1043,-0.1043,-0.1043,-0.1043,-0.1043,-0.1043,-0.1043,-0.1043,-0.1043,-0.1043,-0.1043,-0.1043,-0.1043,-0.1043,-0.1043,-0.1043,-0.1043,-0.1043,-0.1043,-0.1043,-0.1043,-0.1043,-0.1043,-0.1043,-0.1043,-0.1043,-0.1043,-0.1043,-0.1043,-0.1043,-0.1043,-0.1043,-0.1043,-0.1043,-0.1043,-0.1043,-0.1043,-0.1043,-0.1043,-0.1043,-0.1043,-0.1043,-0.1043,-0.1043,-0.1043,-0.1043,-0.1043,-0.1043,-0.1043,-0.1043,-0.1043,-0.1043,-0.1043,-0.1043,-0.1043,-0.1043,-0.1043,-0.1043,-0.1043,-0.1043,-0.1043,-0.1043,-0.1043,-0.1043,-0.1043,-0.1043,-0.1043,-0.1043,-0.1043,-0.1043,-0.1043,-0.1043,-0.1043,-0.1043,-0.1043,-0.1043,-0.1043,-0.1043
-0.1067,-0.1067,-0.1067,-0.1067,-0.1067,-0.1067,-0.1067,-0.1067,-0.1067,-0.1067,-0.1067,-0.1067,-0.1067,-0.1067,-0.1067,-0.1067,-0.1067,-0.1067,-0.1067,-0.1067,-0.1067,-0.1067,-0.1067,-0.1067,-0.1067,-0.1067,-0.1067,-0.1067,-0.1067,-0.1067,-0.1067,-0.1067,-0.1067,-0.1067,-0.1067,-0.1067,-0.1067,-0.1067,-0.1067,-0.1067,-0.1067,-0.1067,-0.1067,-0.1067,-0.1067,-0.1067,-0.1067,-0.1067,-0.1067,-0.1067,-0.1067,-0.1067,-0.1067,-0.1067,-0.1067,-0.1067,-0.1067,-0.1067,-0.1067,-0.1067,-0.1067,-0.1067,-0.1067,-0.1067,-0.1067,-0.1067,-0.1067,-0.1067,-0.1067,-0.1067,-0.1067,-0.1067,-0.1067,-0.1067,-0.1067,-0.1067,-0.1067,-0.1067,-0.1067,-0.1067,-0.1067,-0.1067,-0.1067,-0.1067,-0.1067,-0.1067,-0.1067,-0.1067,-0.1067,-0.1067,-0.1067,-0.1067,-0.1067,-0.1067,-0.1067,-0.1067,-0.1067,-0.1067,-0.1067,-0.1067,-0.1067,-0.1067,-0.1067,-0.1067,-0.1067,-0.1067,-0.1067,-0.1067,-0.1067,-0.1067,-0.1067,-0.1067,-0.1067,-0.1067,-0.1067,-0.1067,-0.1067,-0.1067,-0.1067,-0.1067,-0.1067,-0.1067,-0.1067,-0.1067,-0.1067,-0.1067,-0.1067,-0.1067,-0.1067,-0.1067,-0.1067,-0.1067,-0.1067,-0.1067,-0.1067,-0.1067,-0.1067,-0.1067,-0.1067,-0.1067,-0.1067,-0.1067,-0.1067,-0.1067,-0.1067,-0.1067,-0.1067,-0.1067,-0.1067,-0.1067,-0.1067,-0.1067,-0.1067,-0.1067,-0.1067,-0.1067,-0.1067,-0.1067,-0.1067,-0.1067
-0.1091,-0.1091,-0.1091,-0.1091,-0.1091,-0.1091,-0.1091,-0.1091,-0.1091,-0.1091,-0.1091,-0.1091,-0.1091,-0.1091,-0.1091,-0.1091,-0.1091,-0.1091,-0.1091,-0.1091,-0.1091,-0.1091,-0.1091,-0.1091,-0.1091,-0.1091,-0.1091,-0.1091,-0.1091,-0.1091,-0.1091,-0.1091,-0.1091,-0.1091,-0.1091,-0.1091,-0.1091,-0.1091,-0.1091,-0.1091,-0.1091,-0.1091,-0.1091,-0.1091,-0.1091,-0.1091,-0.1091,-0.1091,-0.1091,-0.1091,-0.1091,-0.1091,-0.1091,-0.1091,-0.1091,-0.1091,-0.1091,-0.1091,-0.1091,-0.1091,-0.1091,-0.1091,-0.1091,-0.1091,-0.1091,-0.1091,-0.1091,-0.1091,-0.1091,-0.1091,-0.1091,-0.1091,-0.1091,-0.1091,-0.1091,-0.1091,-0.1091,-0.1091,-0.1091,-0.1091,-0.1091,-0.1091,-0.1091,-0.1091,-0.1091,-0.1091,-0.1091,-0.1091,-0.1091,-0.1091,-0.1091,-0.1091,-0.1091,-0.1091,-0.1091,-0.1091,-0.1091,-0.1091,-0.1091,-0.1091,-0.1091,-0.1091,-0.1091,-0.1091,-0.1091,-0.1091,-0.1091,-0.1091,-0.1091,-0.1091,-0.1091,-0.1091,-0.1091,-0.1091,-0.1091,-0.1091,-0.1091,-0.1091,-0.1091,-0.1091,-0.1091,-0.1091,-0.1091,-0.1091,-0.1091,-0.1091,-0.1091,-0.1091,-0.1091,-0.1091,-0.1091,-0.1091,-0.1091,-0.1091,-0.1091,-0.1091,-0.1091,-0.1091,-0.1091,-0.1091,-0.1091,-0.1091,-0.1091,-0.1091,-0.1091,-0.1091,-0.1091,-0.1091,-0.1091,-0.1091,-0.1091,-0.1091,-0.1091,-0.1091,-0.1091,-0.1091,-0.1091,-0.1091,-0.1091,-0.1091
-0.1114,-0.1114,-0.1114,-0.1114,-0.1114,-0.1114,-0.1114,-0.1114,-0.1114,-0.1114,-0.1114,-0.1114,-0.1114,-0.1114,-0.1114,-0.1114,-0.1114,-0.1114,-0.1114,-0.1114,-0.1114,-0.1114,-0.1114,-0.1114,-0.1114,-0.1114,-0.1114,-0.1114,-0.1114,-0.1114,-0.1114,-0.1114,-0.1114,-0.1114,-0.1114,-0.1114,-0.1114,-0.1114,-0.1114,-0.1114,-0.1114,-0.1114,-0.1114,-0.1114,-0.1114,-0.1114,-0.1114,-0.1114,-0.1114,-0.1114,-0.1114,-0.1114,-0.1114,-0.1114,-0.1114,-0.1114,-0.1114,-0.1114,-0.1114,-0.1114,-0.1114,-0.1114,-0.1114,-0.1114,-0.1114,-0.1114,-0.1114,-0.1114,-0.1114,-0.1114,-0.1114,-0.1114,-0.1114,-0.1114,-0.1114,-0.1114,-0.1114,-0.1114,-0.1114,-0.1114,-0.1114,-0.1114,-0.1114,-0.1114,-0.1114,-0.1114,-0.1114,-0.1114,-0.1114,-0.1114,-0.1114,-0.1114,-0.1114,-0.1114,-0.1114,-0.1114,-0.1114,-0.1114,-0.1114,-0.1114,-0.1114,-0.1114,-0.1114,-0.1114,-0.1114,-0.1114,-0.1114,-0.1114,-0.1114,-0.1114,-0.1114,-0.1114,-0.1114,-0.1114,-0.1114,-0.1114,-0.1114,-0.1114,-0.1114,-0.1114,-0.1114,-0.1114,-0.1114,-0.1114,-0.1114,-0.1114,-0.1114,-0.1114,-0.1114,-0.1114,-0.1114,-0.1114,-0.1114,-0.1114,-0.1114,-0.1114,-0.1114,-0.1114,-0.1114,-0.1114,-0.1114,-0.1114,-0.1114,-0.1114,-0.1114,-0.1114,-0.1114,-0.1114,-0.1114,-0.1114,-0.1114,-0.1114,-0.1114,-0.1114,-0.1114,-0.1114,-0.1114,-0.1114,-0.1114,-0.1114
-0.1137,-0.1137,-0.1137,-0.1137,-0.1137,-0.1137,-0.1137,-0.1137,-0.1137,-0.1137,-0.1137,-0.1137,-0.1137,-0.1137,-0.1137,-0.1137,-0.1137,-0.1137,-0.1137,-0.1137,-0.1137,-0.1137,-0.1137,-0.1137,-0.1137,-0.1137,-0.1137,-0.1137,-0.1137,-0.1137,-0.1137,-0.1137,-0.1137,-0.1137,-0.1137,-0.1137,-0.1137,-0.1137,-0.1137,-0.1137,-0.1137,-0.1137,-0.1137,-0.1137,-0.1137,-0.1137,-0.1137,-0.1137,-0.1137,-0.1137,-0.1137,-0.1137,-0.1137,-0.1137,-0.1137,-0.1137,-0.1137,-0.1137,-0.1137,-0.1137,-0.1137,-0.1137,-0.1137,-0.1137,-0.1137,-0.1137,-0.1137,-0.1137,-0.1137,-0.1137,-0.1137,-0.1137,-0.1137,-0.1137,-0.1137,-0.1137,-0.1137,-0.1137,-0.1137,-0.1137,-0.1137,-0.1137,-0.1137,-0.1137,-0.1137,-0.1137,-0.1137,-0.1137,-0.1137,-0.1137,-0.1137,-0.1137,-0.1137,-0.1137,-0.1137,-0.1137,-0.1137,-0.1137,-0.1137,-0.1137,-0.1137,-0.1137,-0.1137,-0.1137,-0.1137,-0.1137,-0.1137,-0.1137,-0.1137,-0.1137,-0.1137,-0.1137,-0.1137,-0.1137,-0.1137,-0.1137,-0.1137,-0.1137,-0.1137,-0.1137,-0.1137,-0.1137,-0.1137,-0.1137,-0.1137,-0.1137,-0.1137,-0.1137,-0.1137,-0.1137,-0.1137,-0.1137,-0.1137,-0.1137,-0.1137,-0.1137,-0.1137,-0.1137,-0.1137,-0.1137,-0.1137,-0.1137,-0.1137,-0.1137,-0.1137,-0.1137,-0.1137,-0.1137,-0.1137,-0.1137,-0.1137,-0.1137,-0.1137,-0.1137,-0.1137,-0.1137,-0.1137,-0.1137,-0.1137,-0.1137
-0.1159,-0.1159,-0.1159,-0.1159,-0.1159,-0.1159,-0.1159,-0.1159,-0.1159,-0.1159,-0.1159,-0.1159,-0.1159,-0.1159,-0.1159,-0.1159,-0.1159,-0.1159,-0.1159,-0.1159,-0.1159,-0.1159,-0.1159,-0.1159,-0.1159,-0.1159,-0.1159,-0.1159,-0.1159,-0.1159,-0.1159,-0.1159,-0.1159,-0.1159,-0.1159,-0.1159,-0.1159,-0.1159,-0.1159,-0.1159,-0.1159,-0.1159,-0.1159,-0.1159,-0.1159,-0.1159,-0.1159,-0.1159,-0.1159,-0.1159,-0.1159,-0.1159,-0.1159,-0.1159,-0.1159,-0.1159,-0.1159,-0.1159,-0.1159,-0.1159,-0.1159,-0.1159,-0.1159,-0.1159,-0.1159,-0.1159,-0.1159,-0.1159,-0.1159,-0.1159,-0.1159,-0.1159,-0.1159,-0.1159,-0.1159,-0.1159,-0.1159,-0.1159,-0.1159,-0.1159,-0.1159,-0.1159,-0.1159,-0.1159,-0.1159,-0.1159,-0.1159,-0.1159,-0.1159,-0.1159,-0.1159,-0.1159,-0.1159,-0.1159,-0.1159,-0.1159,-0.1159,-0.1159,-0.1159,-0.1159,-0.1159,-0.1159,-0.1159,-0.1159,-0.1159,-0.1159,-0.1159,-0.1159,-0.1159,-0.1159,-0.1159,-0.1159,-0.1159,-0.1159,-0.1159,-0.1159,-0.1159,-0.1159,-0.1159,-0.1159,-0.1159,-0.1159,-0.1159,-0.1159,-0.1159,-0.1159,-0.1159,-0.1159,-0.1159,-0.1159,-0.1159,-0.1159,-0.1159,-0.1159,-0.1159,-0.1159,-0.1159,-0.1159,-0.1159,-0.1159,-0.1159,-0.1159,-0.1159,-0.1159,-0.1159,-0.1159,-0.1159,-0.1159,-0.1159,-0.1159,-0.1159,-0.1159,-0.1159,-0.1159,-0.1159,-0.1159,-0.1159,-0.1159,-0.1159,-0.1159
-0.1181,-0.1181,-0.1181,-0.1181,-0.1181,-0.1181,-0.1181,-0.1181,-0.1181,-0.1181,-0.1181,-0.1181,-0.1181,-0.1181,-0.1181,-0.1181,-0.1181,-0.1181,-0.1181,-0.1181,-0.1181,-0.1181,-0.1181,-0.1181,-0.1181,-0.1181,-0.1181,-0.1181,-0.1181,-0.1181,-0.1181,-0.1181,-0.1181,-0.1181,-0.1181,-0.1181,-0.1181,-0.1181,-0.1181,-0.1181,-0.1181,-0.1181,-0.1181,-0.1181,-0.1181,-0.1181,-0.1181,-0.1181,-0.1181,-0.1181,-0.1181,-0.1181,-0.1181,-0.1181,-0.1181,-0.1181,-0.1181,-0.1181,-0.1181,-0.1181,-0.1181,-0.1181,-0.1181,-0.1181,-0.1181,-0.1181,-0.1181,-0.1181,-0.1181,-0.1181,-0.1181,-0.1181,-0.1181,-0.1181,-0.1181,-0.1181,-0.1181,-0.1181,-0.1181,-0.1181,-0.1181,-0.1181,-0.1181,-0.1181,-0.1181,-0.1181,-0.1181,-0.1181,-0.1181,-0.1181,-0.1181,-0.1181,-0.1181,-0.1181,-0.1181,-0.1181,-0.1181,-0.1181,-0.1181,-0.1181,-0.1181,-0.1181,-0.1181,-0.1181,-0.1181,-0.1181,-0.1181,-0.1181,-0.1181,-0.1181,-0.1181,-0.1181,-0.1181,-0.1181,-0.1181,-0.1181,-0.1181,-0.1181,-0.1181,-0.1181,-0.1181,-0.1181,-0.1181,-0.1181,-0.1181,-0.1181,-0.1181,-0.1181,-0.1181,-0.1181,-0.1181,-0.1181,-0.1181,-0.1181,-0.1181,-0.1181,-0.1181,-0.1181,-0.1181,-0.1181,-0.1181,-0.1181,-0.1181,-0.1181,-0.1181,-0.1181,-0.1181,-0.1181,-0.1181,-0.1181,-0.1181,-0.1181,-0.1181,-0.1181,-0.1181,-0.1181,-0.1181,-0.1181,-0.1181,-0.1181
-0.1202,-0.1202,-0.1202,-0.1202,-0.1202,-0.1202,-0.1202,-0.1202,-0.1202,-0.1202,-0.1202,-0.1202,-0.1202,-0.1202,-0.1202,-0.1202,-0.1202,-0.1202,-0.1202,-0.1202,-0.1202,-0.1202,-0.1202,-0.1202,-0.1202,-0.1202,-0.1202,-0.1202,-0.1202,-0.1202,-0.1202,-0.1202,-0.1202,-0.1202,-0.1202,-0.1202,-0.1202,-0.1202,-0.1202,-0.1202,-0.1202,-0.1202,-0.1202,-0.1202,-0.1202,-0.1202,-0.1202,-0.1202,-0.1202,-0.1202,-0.1202,-0.1202,-0.1202,-0.1202,-0.1202,-0.1202,-0.1202,-0.1202,-0.1202,-0.1202,-0.1202,-0.1202,-0.1202,-0.1202,-0.1202,-0.1202,-0.1202,-0.1202,-0.1202,-0.1202,-0.1202,-0.1202,-0.1202,-0.1202,-0.1202,-0.1202,-0.1202,-0.1202,-0.1202,-0.1202,-0.1202,-0.1202,-0.1202,-0.1202,-0.1202,-0.1202,-0.1202,-0.1202,-0.1202,-0.1202,-0.1202,-0.1202,-0.1202,-0.1202,-0.1202,-0.1202,-0.1202,-0.1202,-0.1202,-0.1202,-0.1202,-0.1202,-0.1202,-0.1202,-0.1202,-0.1202,-0.1202,-0.1202,-0.1202,-0.1202,-0.1202,-0.1202,-0.1202,-0.1202,-0.1202,-0.1202,-0.1202,-0.1202,-0.1202,-0.1202,-0.1202,-0.1202,-0.1202,-0.1202,-0.1202,-0.1202,-0.1202,-0.1202,-0.1202,-0.1202,-0.1202,-0.1202,-0.1202,-0.1202,-0.1202,-0.1202,-0.1202,-0.1202,-0.1202,-0.1202,-0.1202,-0.1202,-0.1202,-0.1202,-0.1202,-0.1202,-0.1202,-0.1202,-0.1202,-0.1202,-0.1202,-0.1202,-0.1202,-0.1202,-0.1202,-0.1202,-0.1202,-0.1202,-0.1202,-0.1202
-0.1223,-0.1223,-0.1223,-0.1223,-0.1223,-0.1223,-0.1223,-0.1223,-0.1223,-0.1223,-0.1223,-0.1223,-0.1223,-0.1223,-0.1223,-0.1223,-0.1223,-0.1223,-0.1223,-0.1223,-0.1223,-0.1223,-0.1223,-0.1223,-0.1223,-0.1223,-0.1223,-0.1223,-0.1223,-0.1223,-0.1223,-0.1223,-0.1223,-0.1223,-0.1223,-0.1223,-0.1223,-0.1223,-0.1223,-0.1223,-0.1223,-0.1223,-0.1223,-0.1223,-0.1223,-0.1223,-0.1223,-0.1223,-0.1223,-0.1223,-0.1223,-0.1223,-0.1223,-0.1223,-0.1223,-0.1223,-0.1223,-0.1223,-0.1223,-0.1223,-0.1223,-0.1223,-0.1223,-0.1223,-0.1223,-0.1223,-0.1223,-0.1223,-0.1223,-0.1223,-0.1223,-0.1223,-0.1223,-0.1223,-0.1223,-0.1223,-0.1223,-0.1223,-0.1223,-0.1223,-0.1223,-0.1223,-0.1223,-0.1223,-0.1223,-0.1223,-0.1223,-0.1223,-0.1223,-0.1223,-0.1223,-0.1223,-0.1223,-0.1223,-0.1223,-0.1223,-0.1223,-0.1223,-0.1223,-0.1223,-0.1223,-0.1223,-0.1223,-0.1223,-0.1223,-0.1223,-0.1223,-0.1223,-0.1223,-0.1223,-0.1223,-0.1223,-0.1223,-0.1223,-0.1223,-0.1223,-0.1223,-0.1223,-0.1223,-0.1223,-0.1223,-0.1223,-0.1223,-0.1223,-0.1223,-0.1223,-0.1223,-0.1223,-0.1223,-0.1223,-0.1223,-0.1223,-0.1223,-0.1223,-0.1223,-0.1223,-0.1223,-0.1223,-0.1223,-0.1223,-0.1223,-0.1223,-0.1223,-0.1223,-0.1223,-0.1223,-0.1223,-0.1223,-0.1223,-0.1223,-0.1223,-0.1223,-0.1223,-0.1223,-0.1223,-0.1223,-0.1223,-0.1223,-0.1223,-0.1223
-0.1244,-0.1244,-0.1244,-0.1244,-0.1244,-0.1244,-0.1244,-0.1244,-0.1244,-0.1244,-0.1244,-0.1244,-0.1244,-0.1244,-0.1244,-0.1244,-0.1244,-0.1244,-0.1244,-0.1244,-0.1244,-0.1244,-0.1244,-0.1244,-0.1244,-0.1244,-0.1244,-0.1244,-0.1244,-0.1244,-0.1244,-0.1244,-0.1244,-0.1244,-0.1244,-0.1244,-0.1244,-0.1244,-0.1244,-0.1244,-0.1244,-0.1244,-0.1244,-0.1244,-0.1244,-0.1244,-0.1244,-0.1244,-0.1244,-0.1244,-0.1244,-0.1244,-0.1244,-0.1244,-0.1244,-0.1244,-0.1244,-0.1244,-0.1244,-0.1244,-0.1244,-0.1244,-0.1244,-0.1244,-0.1244,-0.1244,-0.1244,-0.1244,-0.1244,-0.1244,-0.1244,-0.1244,-0.1244,-0.1244,-0.1244,-0.1244,-0.1244,-0.1244,-0.1244,-0.1244,-0.1244,-0.1244,-0.1244,-0.1244,-0.1244,-0.1244,-0.1244,-0.1244,-0.1244,-0.1244,-0.1244,-0.1244,-0.1244,-0.1244,-0.1244,-0.1244,-0.1244,-0.1244,-0.1244,-0.1244,-0.1244,-0.1244,-0.1244,-0.1244,-0.1244,-0.1244,-0.1244,-0.1244,-0.1244,-0.1244,-0.1244,-0.1244,-0.1244,-0.1244,-0.1244,-0.1244,-0.1244,-0.1244,-0.1244,-0.1244,-0.1244,-0.1244,-0.1244,-0.1244,-0.1244,-0.1244,-0.1244,-0.1244,-0.1244,-0.1244,-0.1244,-0.1244,-0.1244,-0.1244,-0.1244,-0.1244,-0.1244,-0.1244,-0.1244,-0.1244,-0.1244,-0.1244,-0.1244,-0.1244,-0.1244,-0.1244,-0.1244,-0.1244,-0.1244,-0.1244,-0.1244,-0.1244,-0.1244,-0.1244,-0.1244,-0.1244,-0.1244,-0.1244,-0.1244,-0.1244
-0.1264,-0.1264,-0.1264,-0.1264,-0.1264,-0.1264,-0.1264,-0.1264,-0.1264,-0.1264,-0.1264,-0.1264,-0.1264,-0.1264,-0.1264,-0.1264,-0.1264,-0.1264,-0.1264,-0.1264,-0.1264,-0.1264,-0.1264,-0.1264,-0.1264,-0.1264,-0.1264,-0.1264,-0.1264,-0.1264,-0.1264,-0.1264,-0.1264,-0.1264,-0.1264,-0.1264,-0.1264,-0.1264,-0.1264,-0.1264,-0.1264,-0.1264,-0.1264,-0.1264,-0.1264,-0.1264,-0.1264,-0.1264,-0.1264,-0.1264,-0.1264,-0.1264,-0.1264,-0.1264,-0.1264,-0.1264,-0.1264,-0.1264,-0.1264,-0.1264,-0.1264,-0.1264,-0.1264,-0.1264,-0.1264,-0.1264,-0.1264,-0.1264,-0.1264,-0.1264,-0.1264,-0.1264,-0.1264,-0.1264,-0.1264,-0.1264,-0.1264,-0.1264,-0.1264,-0.1264,-0.1264,-0.1264,-0.1264,-0.1264,-0.1264,-0.1264,-0.1264,-0.1264,-0.1264,-0.1264,-0.1264,-0.1264,-0.1264,-0.1264,-0.1264,-0.1264,-0.1264,-0.1264,-0.1264,-0.1264,-0.1264,-0.1264,-0.1264,-0.1264,-0.1264,-0.1264,-0.1264,-0.1264,-0.1264,-0.1264,-0.1264,-0.1264,-0.1264,-0.1264,-0.1264,-0.1264,-0.1264,-0.1264,-0.1264,-0.1264,-0.1264,-0.1264,-0.1264,-0.1264,-0.1264,-0.1264,-0.1264,-0.1264,-0.1264,-0.1264,-0.1264,-0.1264,-0.1264,-0.1264,-0.1264,-0.1264,-0.1264,-0.1264,-0.1264,-0.1264,-0.1264,-0.1264,-0.1264,-0.1264,-0.1264,-0.1264,-0.1264,-0.1264,-0.1264,-0.1264,-0.1264,-0.1264,-0.1264,-0.1264,-0.1264,-0.1264,-0.1264,-0.1264,-0.1264,-0.1264
-0.1283,-0.1283,-0.1283,-0.1283,-0.1283,-0.1283,-0.1283,-0.1283,-0.1283,-0.1283,-0.1283,-0.1283,-0.1283,-0.1283,-0.1283,-0.1283,-0.1283,-0.1283,-0.1283,-0.1283,-0.1283,-0.1283,-0.1283,-0.1283,-0.1283,-0.1283,-0.1283,-0.1283,-0.1283,-0.1283,-0.1283,-0.1283,-0.1283,-0.1283,-0.1283,-0.1283,-0.1283,-0.1283,-0.1283,-0.1283,-0.1283,-0.1283,-0.1283,-0.1283,-0.1283,-0.1283,-0.1283,-0.1283,-0.1283,-0.1283,-0.1283,-0.1283,-0.1283,-0.1283,-0.1283,-0.1283,-0.1283,-0.1283,-0.1283,-0.1283,-0.1283,-0.1283,-0.1283,-0.1283,-0.1283,-0.1283,-0.1283,-0.1283,-0.1283,-0.1283,-0.1283,-0.1283,-0.1283,-0.1283,-0.1283,-0.1283,-0.1283,-0.1283,-0.1283,-0.1283,-0.1283,-0.1283,-0.1283,-0.1283,-0.1283,-0.1283,-0.1284,-0.1284,-0.1284,-0.1284,-0.1284,-0.1284,-0.1284,-0.1284,-0.1284,-0.1284,-0.1284,-0.1284,-0.1284,-0.1284,-0.1284,-0.1284,-0.1284,-0.1284,-0.1284,-0.1284,-0.1284,-0.1284,-0.1284,-0.1284,-0.1284,-0.1284,-0.1284,-0.1284,-0.1284,-0.1284,-0.1284,-0.1284,-0.1284,-0.1284,-0.1284,-0.1284,-0.1284,-0.1284,-0.1284,-0.1284,-0.1284,-0.1284,-0.1284,-0.1284,-0.1284,-0.1284,-0.1284,-0.1284,-0.1284,-0.1284,-0.1284,-0.1284,-0.1284,-0.1284,-0.1284,-0.1284,-0.1284,-0.1284,-0.1284,-0.1284,-0.1284,-0.1284,-0.1284,-0.1284,-0.1284,-0.1284,-0.1284,-0.1284,-0.1284,-0.1284,-0.1284,-0.1284,-0.1284,-0.1284
-0.1303,-0.1303,-0.1303,-0.1303,-0.1303,-0.1303,-0.1303,-0.1303,-0.1303,-0.1303,-0.1303,-0.1303,-0.1303,-0.1303,-0.1303,-0.1303,-0.1303,-0.1303,-0.1303,-0.1303,-0.1303,-0.1303,-0.1303,-0.1303,-0.1303,-0.1303,-0.1303,-0.1303,-0.1303,-0.1303,-0.1303,-0.1303,-0.1303,-0.1303,-0.1303,-0.1303,-0.1303,-0.1303,-0.1303,-0.1303,-0.1303,-0.1303,-0.1303,-0.1303,-0.1303,-0.1303,-0.1303,-0.1303,-0.1303,-0.1303,-0.1303,-0.1303,-0.1303,-0.1303,-0.1303,-0.1303,-0.1303,-0.1303,-0.1303,-0.1303,-0.1303,-0.1303,-0.1303,-0.1303,-0.1303,-0.1303,-0.1303,-0.1303,-0.1303,-0.1303,-0.1303,-0.1303,-0.1303,-0.1303,-0.1303,-0.1303,-0.1303,-0.1303,-0.1303,-0.1303,-0.1303,-0.1303,-0.1303,-0.1303,-0.1303,-0.1303,-0.1303,-0.1303,-0.1303,-0.1303,-0.1303,-0.1303,-0.1303,-0.1303,-0.1303,-0.1303,-0.1303,-0.1303,-0.1303,-0.1303,-0.1303,-0.1303,-0.1303,-0.1303,-0.1303,-0.1303,-0.1303,-0.1303,-0.1303,-0.1303,-0.1303,-0.1303,-0.1303,-0.1303,-0.1303,-0.1303,-0.1303,-0.1303,-0.1303,-0.1303,-0.1303,-0.1303,-0.1303,-0.1303,-0.1303,-0.1303,-0.1303,-0.1303,-0.1303,-0.1303,-0.1303,-0.1303,-0.1303,-0.1303,-0.1303,-0.1303,-0.1303,-0.1303,-0.1303,-0.1303,-0.1303,-0.1303,-0.1303,-0.1303,-0.1303,-0.1303,-0.1303,-0.1303,-0.1303,-0.1303,-0.1303,-0.1303,-0.1303,-0.1303,-0.1303,-0.1303,-0.1303,-0.1303,-0.1303,-0.1303
-0.1322,-0.1322,-0.1322,-0.1322,-0.1322,-0.1322,-0.1322,-0.1322,-0.1322,-0.1322,-0.1322,-0.1322,-0.1322,-0.1322,-0.1322,-0.1322,-0.1322,-0.1322,-0.1322,-0.1322,-0.1322,-0.1322,-0.1322,-0.1322,-0.1322,-0.1322,-0.1322,-0.1322,-0.1322,-0.1322,-0.1322,-0.1322,-0.1322,-0.1322,-0.1322,-0.1322,-0.1322,-0.1322,-0.1322,-0.1322,-0.1322,-0.1322,-0.1322,-0.1322,-0.1322,-0.1322,-0.1322,-0.1322,-0.1322,-0.1322,-0.1322,-0.1322,-0.1322,-0.1322,-0.1322,-0.1322,-0.1322,-0.1322,-0.1322,-0.1322,-0.1322,-0.1322,-0.1322,-0.1322,-0.1322,-0.1322,-0.1322,-0.1322,-0.1322,-0.1322,-0.1322,-0.1322,-0.1322,-0.1322,-0.1322,-0.1322,-0.1322,-0.1322,-0.1322,-0.1322,-0.1322,-0.1322,-0.1322,-0.1322,-0.1322,-0.1322,-0.1322,-0.1322,-0.1322,-0.1322,-0.1322,-0.1322,-0.1322,-0.1322,-0.1322,-0.1322,-0.1322,-0.1322,-0.1322,-0.1322,-0.1322,-0.1322,-0.1322,-0.1322,-0.1322,-0.1322,-0.1322,-0.1322,-0.1322,-0.1322,-0.1322,-0.1322,-0.1322,-0.1322,-0.1322,-0.1322,-0.1322,-0.1322,-0.1322,-0.1322,-0.1322,-0.1322,-0.1322,-0.1322,-0.1322,-0.1322,-0.1322,-0.1322,-0.1322,-0.1322,-0.1322,-0.1322,-0.1322,-0.1322,-0.1322,-0.1322,-0.1322,-0.1322,-0.1322,-0.1322,-0.1322,-0.1322,-0.1322,-0.1322,-0.1322,-0.1322,-0.1322,-0.1322,-0.1322,-0.1322,-0.1322,-0.1322,-0.1322,-0.1322,-0.1322,-0.1322,-0.1322,-0.1322,-0.1322,-0.1322
-0.1340,-0.1340,-0.1340,-0.1340,-0.1340,-0.1340,-0.1340,-0.1340,-0.1340,-0.1340,-0.1340,-0.1340,-0.1340,-0.1340,-0.1340,-0.1340,-0.1340,-0.1340,-0.1340,-0.1340,-0.1340,-0.1340,-0.1340,-0.1340,-0.1340,-0.1340,-0.1340,-0.1340,-0.1340,-0.1340,-0.1340,-0.1340,-0.1340,-0.1340,-0.1340,-0.1340,-0.1340,-0.1340,-0.1340,-0.1340,-0.1340,-0.1340,-0.1340,-0.1340,-0.1340,-0.1340,-0.1340,-0.1340,-0.1340,-0.1340,-0.1340,-0.1340,-0.1340,-0.1340,-0.1340,-0.1340,-0.1340,-0.1340,-0.1340,-0.1340,-0.1340,-0.1340,-0.1340,-0.1340,-0.1340,-0.1340,-0.1340,-0.1340,-0.1340,-0.1340,-0.1340,-0.1340,-0.1340,-0.1340,-0.1340,-0.1340,-0.1340,-0.1340,-0.1340,-0.1340,-0.1340,-0.1340,-0.1340,-0.1340,-0.1340,-0.1340,-0.1340,-0.1340,-0.1340,-0.1340,-0.1340,-0.1340,-0.1340,-0.1340,-0.1340,-0.1340,-0.1340,-0.1340,-0.1340,-0.1340,-0.1340,-0.1340,-0.1340,-0.1340,-0.1340,-0.1340,-0.1340,-0.1340,-0.1340,-0.1340,-0.1340,-0.1340,-0.1340,-0.1340,-0.1340,-0.1340,-0.1340,-0.1340,-0.1340,-0.1340,-0.1340,-0.1340,-0.1340,-0.1340,-0.1340,-0.1340,-0.1340,-0.1340,-0.1340,-0.1340,-0.1340,-0.1340,-0.1340,-0.1340,-0.1340,-0.1340,-0.1340,-0.1340,-0.1340,-0.1340,-0.1340,-0.1340,-0.1340,-0.1340,-0.1340,-0.1340,-0.1340,-0.1340,-0.1340,-0.1340,-0.1340,-0.1340,-0.1340,-0.1340,-0.1340,-0.1340,-0.1340,-0.1340,-0.1340,-0.1340
-0.1359,-0.1359,-0.1359,-0.1359,-0.1359,-0.1359,-0.1359,-0.1359,-0.1359,-0.1359,-0.1359,-0.1359,-0.1359,-0.1359,-0.1359,-0.1359,-0.1359,-0.1359,-0.1359,-0.1359,-0.1359,-0.1359,-0.1359,-0.1359,-0.1359,-0.1359,-0.1359,-0.1359,-0.1359,-0.1359,-0.1359,-0.1359,-0.1359,-0.1359,-0.1359,-0.1359,-0.1359,-0.1359,-0.1359,-0.1359,-0.1359,-0.1359,-0.1359,-0.1359,-0.1359,-0.1359,-0.1359,-0.1359,-0.1359,-0.1359,-0.1359,-0.1359,-0.1359,-0.1359,-0.1359,-0.1359,-0.1359,-0.1359,-0.1359,-0.1359,-0.1359,-0.1359,-0.1359,-0.1359,-0.1359,-0.1359,-0.1359,-0.1359,-0.1359,-0.1359,-0.1359,-0.1359,-0.1359,-0.1359,-0.1359,-0.1359,-0.1359,-0.1359,-0.1359,-0.1359,-0.1359,-0.1359,-0.1359,-0.1359,-0.1359,-0.1359,-0.1359,-0.1359,-0.1359,-0.1359,-0.1359,-0.1359,-0.1359,-0.1359,-0.1359,-0.1359,-0.1359,-0.1359,-0.1359,-0.1359,-0.1359,-0.1359,-0.1359,-0.1359,-0.1359,-0.1359,-0.1359,-0.1359,-0.1359,-0.1359,-0.1359,-0.1359,-0.1359,-0.1359,-0.1359,-0.1359,-0.1359,-0.1359,-0.1359,-0.1359,-0.1359,-0.1359,-0.1359,-0.1359,-0.1359,-0.1359,-0.1359,-0.1359,-0.1359,-0.1359,-0.1359,-0.1359,-0.1359,-0.1359,-0.1359,-0.1359,-0.1359,-0.1359,-0.1359,-0.1359,-0.1359,-0.1359,-0.1359,-0.1359,-0.1359,-0.1359,-0.1359,-0.1359,-0.1359,-0.1359,-0.1359,-0.1359,-0.1359,-0.1359,-0.1359,-0.1359,-0.1359,-0.1359,-0.1359,-0.1359
-0.1376,-0.1376,-0.1376,-0.1376,-0.1376,-0.1376,-0.1376,-0.1376,-0.1376,-0.1376,-0.1376,-0.1376,-0.1376,-0.1376,-0.1376,-0.1377,-0.1377,-0.1377,-0.1377,-0.1377,-0.1377,-0.1377,-0.1377,-0.1377,-0.1377,-0.1377,-0.1377,-0.1377,-0.1377,-0.1377,-0.1377,-0.1377,-0.1377,-0.1377,-0.1377,-0.1377,-0.1377,-0.1377,-0.1377,-0.1377,-0.1377,-0.1377,-0.1377,-0.1377,-0.1377,-0.1377,-0.1377,-0.1377,-0.1377,-0.1377,-0.1377,-0.1377,-0.1377,-0.1377,-0.1377,-0.1377,-0.1377,-0.1377,-0.1377,-0.1377,-0.1377,-0.1377,-0.1377,-0.1377,-0.1377,-0.1377,-0.1377,-0.1377,-0.1377,-0.1377,-0.1377,-0.1377,-0.1377,-0.1377,-0.1377,-0.1377,-0.1377,-0.1377,-0.1377,-0.1377,-0.1377,-0.1377,-0.1377,-0.1377,-0.1377,-0.1377,-0.1377,-0.1377,-0.1377,-0.1377,-0.1377,-0.1377,-0.1377,-0.1377,-0.1377,-0.1377,-0.1377,-0.1377,-0.1377,-0.1377,-0.1377,-0.1377,-0.1377,-0.1377,-0.1377,-0.1377,-0.1377,-0.1377,-0.1377,-0.1377,-0.1377,-0.1377,-0.1377,-0.1377,-0.1377,-0.1377,-0.1377,-0.1377,-0.1377,-0.1377,-0.1377,-0.1377,-0.1377,-0.1377,-0.1377,-0.1377,-0.1377,-0.1377,-0.1377,-0.1377,-0.1377,-0.1377,-0.1377,-0.1377,-0.1377,-0.1377,-0.1377,-0.1377,-0.1377,-0.1377,-0.1377,-0.1377,-0.1377,-0.1377,-0.1377,-0.1377,-0.1377,-0.1377,-0.1377,-0.1377,-0.1377,-0.1377,-0.1377,-0.1377,-0.1377,-0.1377,-0.1377,-0.1377,-0.1377,-0.1377
-0.1394,-0.1394,-0.1394,-0.1394,-0.1394,-0.1394,-0.1394,-0.1394,-0.1394,-0.1394,-0.1394,-0.1394,-0.1394,-0.1394,-0.1394,-0.1394,-0.1394,-0.1394,-0.1394,-0.1394,-0.1394,-0.1394,-0.1394,-0.1394,-0.1394,-0.1394,-0.1394,-0.1394,-0.1394,-0.1394,-0.1394,-0.1394,-0.1394,-0.1394,-0.1394,-0.1394,-0.1394,-0.1394,-0.1394,-0.1394,-0.1394,-0.1394,-0.1394,-0.1394,-0.1394,-0.1394,-0.1394,-0.1394,-0.1394,-0.1394,-0.1394,-0.1394,-0.1394,-0.1394,-0.1394,-0.1394,-0.1394,-0.1394,-0.1394,-0.1394,-0.1394,-0.1394,-0.1394,-0.1394,-0.1394,-0.1394,-0.1394,-0.1394,-0.1394,-0.1394,-0.1394,-0.1394,-0.1394,-0.1394,-0.1394,-0.1394,-0.1394,-0.1394,-0.1394,-0.1394,-0.1394,-0.1394,-0.1394,-0.1394,-0.1394,-0.1394,-0.1394,-0.1394,-0.1394,-0.1394,-0.1394,-0.1394,-0.1394,-0.1394,-0.1394,-0.1394,-0.1394,-0.1394,-0.1394,-0.1394,-0.1394,-0.1394,-0.1394,-0.1394,-0.1394,-0.1394,-0.1394,-0.1394,-0.1394,-0.1394,-0.1394,-0.1394,-0.1394,-0.1394,-0.1394,-0.1394,-0.1394,-0.1394,-0.1394,-0.1394,-0.1394,-0.1394,-0.1394,-0.1394,-0.1394,-0.1394,-0.1394,-0.1394,-0.1394,-0.1394,-0.1394,-0.1394,-0.1394,-0.1394,-0.1394,-0.1394,-0.1394,-0.1394,-0.1394,-0.1394,-0.1394,-0.1394,-0.1394,-0.1394,-0.1394,-0.1394,-0.1394,-0.1394,-0.1394,-0.1394,-0.1394,-0.1394,-0.1394,-0.1394,-0.1394,-0.1394,-0.1394,-0.1394,-0.1394,-0.1394
-0.1411,-0.1411,-0.1411,-0.1411,-0.1411,-0.1411,-0.1411,-0.1411,-0.1411,-0.1411,-0.1411,-0.1411,-0.1411,-0.1411,-0.1411,-0.1411,-0.1411,-0.1411,-0.1411,-0.1411,-0.1411,-0.1411,-0.1411,-0.1411,-0.1411,-0.1411,-0.1411,-0.1411,-0.1411,-0.1411,-0.1411,-0.1411,-0.1411,-0.1411,-0.1411,-0.1411,-0.1411,-0.1411,-0.1411,-0.1411,-0.1411,-0.1411,-0.1411,-0.1411,-0.1411,-0.1411,-0.1411,-0.1411,-0.1411,-0.1411,-0.1411,-0.1411,-0.1411,-0.1411,-0.1411,-0.1411,-0.1411,-0.1411,-0.1411,-0.1411,-0.1411,-0.1411,-0.1411,-0.1411,-0.1411,-0.1411,-0.1411,-0.1411,-0.1411,-0.1411,-0.1411,-0.1411,-0.1411,-0.1411,-0.1411,-0.1411,-0.1411,-0.1411,-0.1411,-0.1411,-0.1411,-0.1411,-0.1411,-0.1411,-0.1411,-0.1411,-0.1411,-0.1411,-0.1411,-0.1411,-0.1411,-0.1411,-0.1411,-0.1411,-0.1411,-0.1411,-0.1411,-0.1411,-0.1411,-0.1411,-0.1411,-0.1411,-0.1411,-0.1411,-0.1411,-0.1411,-0.1411,-0.1411,-0.1411,-0.1411,-0.1411,-0.1411,-0.1411,-0.1411,-0.1411,-0.1411,-0.1411,-0.1411,-0.1411,-0.1411,-0.1411,-0.1411,-0.1411,-0.1411,-0.1411,-0.1411,-0.1411,-0.1411,-0.1411,-0.1411,-0.1411,-0.1411,-0.1411,-0.1411,-0.1411,-0.1411,-0.1411,-0.1411,-0.1411,-0.1411,-0.1411,-0.1411,-0.1411,-0.1411,-0.1411,-0.1411,-0.1411,-0.1411,-0.1411,-0.1411,-0.1411,-0.1411,-0.1411,-0.1411,-0.1411,-0.1411,-0.1411,-0.1411,-0.1411,-0.1411
